# This PCD file was generated using the MATLAB® pcwrite function
# from Computer Vision System Toolbox®.
# .PCD v.7 - Point Cloud Data file format
VERSION .7
FIELDS x y z rgb
SIZE 4 4 4 4
TYPE F F F F
COUNT 1 1 1 1
WIDTH 1060
HEIGHT 1
VIEWPOINT 0 0 0 1 0 0 0
POINTS 1060
DATA ascii
0.110833 -1.972427 -1.445959 1.254254051e-38
0.114040 -1.972889 -1.445798 1.300566825e-38
0.103890 -1.974790 -1.446760 9.770938900e-39
0.103635 -1.977441 -1.448308 9.402156380e-39
0.107160 -1.974805 -1.447328 1.051065493e-38
0.106911 -1.977356 -1.449037 1.023442537e-38
0.110506 -1.975005 -1.447611 1.245070361e-38
0.113791 -1.975440 -1.447508 1.282163572e-38
0.110022 -1.977471 -1.449415 1.208191969e-38
0.113640 -1.977882 -1.449411 1.254540756e-38
0.093411 -1.980352 -1.441797 1.318218421e-38
0.100589 -2.002307 -1.437131 1.355096673e-38
0.101246 -2.003030 -1.436092 1.355096673e-38
0.101922 -2.000276 -1.435484 1.364316236e-38
0.099358 -2.001125 -1.438803 1.345877110e-38
0.099224 -2.004566 -1.439107 1.355096673e-38
0.098773 -2.004050 -1.439853 1.262901043e-38
0.089516 -1.994437 -1.453578 1.023084365e-38
0.089225 -1.997019 -1.455232 7.740842782e-39
0.088953 -1.999255 -1.456820 6.910721979e-39
0.086569 -2.006695 -1.456775 6.634135090e-39
0.088307 -2.006508 -1.457389 6.634135090e-39
0.085664 -1.993138 -1.466647 1.336657547e-38
0.086491 -1.994227 -1.465051 1.327437984e-38
0.087002 -1.980015 -1.452862 8.847907805e-39
0.098699 -1.987573 -1.454552 8.662800482e-39
0.103258 -1.979976 -1.450021 9.125929624e-39
0.106777 -1.979778 -1.450974 1.014258848e-38
0.108573 -1.979792 -1.451276 1.106633423e-38
0.110307 -1.979858 -1.451484 1.162130027e-38
0.113585 -1.980217 -1.451501 1.208478675e-38
0.107083 -1.982139 -1.453089 1.042060749e-38
0.110297 -1.982143 -1.453664 1.143726634e-38
0.113577 -1.982501 -1.453683 1.171636156e-38
0.098862 -1.985118 -1.452672 8.754638781e-39
0.101366 -1.987363 -1.455369 8.756072309e-39
0.102421 -1.984913 -1.453644 8.848265136e-39
0.102598 -1.987243 -1.455785 8.940820900e-39
0.106067 -1.986909 -1.456946 1.032733567e-38
0.110256 -1.984463 -1.455782 1.134542805e-38
0.113101 -1.984747 -1.455840 1.134793777e-38
0.113564 -1.983729 -1.454834 1.153232903e-38
0.110671 -1.986878 -1.457830 1.134686017e-38
0.113487 -1.987148 -1.457905 1.134829370e-38
0.096209 -1.995435 -1.464874 1.244281570e-38
0.098203 -1.995346 -1.465377 1.106024279e-38
0.099982 -1.995244 -1.465862 9.862418466e-39
0.100132 -1.989664 -1.457302 8.847550474e-39
0.102787 -1.989307 -1.458355 9.125210758e-39
0.104289 -1.989203 -1.458793 9.495785538e-39
0.106596 -1.989076 -1.459412 1.041988863e-38
0.103521 -1.993039 -1.464191 9.680176798e-39
0.105098 -1.993062 -1.464440 1.005039144e-38
0.107029 -1.991415 -1.462416 1.042132496e-38
0.103332 -1.994893 -1.466504 9.771654963e-39
0.109928 -1.988912 -1.459625 1.125394848e-38
0.113405 -1.989514 -1.459943 1.125609947e-38
0.110173 -1.991377 -1.462214 1.097736299e-38
0.113386 -1.991809 -1.462103 1.097987272e-38
0.107037 -1.993134 -1.464675 1.042096622e-38
0.107310 -1.995105 -1.467409 1.042168369e-38
0.110365 -1.993438 -1.464790 1.070149357e-38
0.109964 -1.995270 -1.467188 1.060822314e-38
0.113554 -1.996171 -1.466830 1.061108880e-38
0.086889 -1.995172 -1.467175 1.327437984e-38
0.086942 -1.998273 -1.470335 1.198328089e-38
0.086313 -2.000276 -1.470361 1.189036779e-38
0.089594 -2.002354 -1.485353 6.357186665e-39
0.090819 -2.003060 -1.486734 6.356469200e-39
0.089297 -1.998774 -1.464116 1.244426044e-38
0.088086 -1.996603 -1.467376 1.318218421e-38
0.088967 -1.997752 -1.465693 1.318218421e-38
0.089051 -2.001389 -1.465724 1.225986778e-38
0.087609 -1.999145 -1.469059 1.318218421e-38
0.088659 -2.000368 -1.467289 1.318218421e-38
0.100735 -1.997222 -1.468671 9.494353411e-39
0.097780 -2.001507 -1.472956 8.846833009e-39
0.100692 -2.001277 -1.473850 8.940463569e-39
0.096981 -2.002195 -1.473753 8.846833009e-39
0.097360 -2.003252 -1.475926 8.848267939e-39
0.100587 -2.003062 -1.476397 8.756789774e-39
0.107216 -1.996768 -1.469466 1.051280452e-38
0.113681 -1.998303 -1.469278 1.042669894e-38
0.110941 -2.000052 -1.472935 1.042490668e-38
0.113798 -2.000696 -1.471948 1.024230768e-38
0.102421 -2.001199 -1.474287 9.126289758e-39
0.104405 -2.001153 -1.474720 9.680536932e-39
0.108261 -2.001450 -1.475259 1.069898664e-38
0.107988 -2.003447 -1.477534 1.069755311e-38
0.111006 -2.001821 -1.474843 1.024051542e-38
0.113859 -2.002654 -1.474025 1.005791642e-38
0.111044 -2.004054 -1.477115 1.033199358e-38
0.113885 -2.004899 -1.476274 9.965720787e-39
0.096295 -2.001922 -1.481692 7.187667601e-39
0.093561 -2.000451 -1.482252 6.818526350e-39
0.091083 -2.001190 -1.483935 6.449383696e-39
0.093881 -2.001385 -1.484128 6.817807483e-39
0.096832 -2.002109 -1.483503 7.279505900e-39
0.097321 -2.002505 -1.485371 7.371342798e-39
0.097717 -2.003399 -1.487438 7.555734057e-39
0.098345 -2.003846 -1.481737 8.663873876e-39
0.094962 -2.004733 -1.490645 8.201103466e-39
0.097851 -2.005131 -1.490530 8.201102065e-39
0.105014 -2.003364 -1.477961 9.404667507e-39
0.104987 -2.005053 -1.480260 9.496863137e-39
0.108112 -2.005584 -1.479975 1.051316185e-38
0.105347 -2.006927 -1.483165 1.041845930e-38
0.108181 -2.007780 -1.482311 1.042132636e-38
0.111039 -2.006333 -1.479304 1.014760372e-38
0.113862 -2.007199 -1.478428 9.781329528e-39
0.111000 -2.008650 -1.481427 9.871016833e-39
0.113807 -2.009533 -1.480519 9.688775165e-39
0.102601 -2.006397 -1.484596 9.862775797e-39
0.105390 -2.008100 -1.484428 1.069468746e-38
0.102782 -2.008050 -1.486745 9.954614096e-39
0.105412 -2.009129 -1.485491 1.060249323e-38
0.108163 -2.009628 -1.484041 1.042096482e-38
0.105684 -2.011101 -1.488223 1.060141843e-38
0.108176 -2.012334 -1.486698 1.032805173e-38
0.110942 -2.010600 -1.483135 9.778819802e-39
0.113748 -2.011454 -1.482198 9.504383906e-39
0.110882 -2.013330 -1.485591 9.685906707e-39
0.113690 -2.014211 -1.484687 9.412188276e-39
0.098282 -2.007319 -1.492943 9.400722852e-39
0.100308 -2.006246 -1.489840 8.939025836e-39
0.101004 -2.008296 -1.491870 9.676952410e-39
0.093974 -2.004586 -1.403077 7.459588167e-39
0.094164 -2.003534 -1.404796 7.643260561e-39
0.104821 -1.995692 -1.419285 1.189144539e-38
0.104987 -1.995536 -1.419436 1.189144539e-38
0.102307 -1.993079 -1.419410 1.161485850e-38
0.103628 -1.991052 -1.421460 1.226022791e-38
0.106319 -1.992898 -1.421134 1.253681480e-38
0.104908 -1.989379 -1.423731 1.244461917e-38
0.120225 -1.940396 -1.423028 1.263759899e-38
0.123252 -1.941092 -1.422460 1.245392800e-38
0.119861 -1.942952 -1.424710 1.199294564e-38
0.123102 -1.943534 -1.424363 1.208514268e-38
0.126164 -1.941859 -1.421757 1.226989687e-38
0.129253 -1.942428 -1.421404 1.208586575e-38
0.126118 -1.944185 -1.423865 1.190147308e-38
0.129265 -1.944690 -1.423625 1.190147449e-38
0.119327 -1.945387 -1.426554 1.171599862e-38
0.123006 -1.945914 -1.426374 1.180855579e-38
0.117685 -1.947677 -1.428431 1.162344426e-38
0.119722 -1.947836 -1.428544 1.153160876e-38
0.122908 -1.948298 -1.428380 1.162416453e-38
0.126100 -1.946478 -1.426030 1.171672169e-38
0.126038 -1.948821 -1.428107 1.171672169e-38
0.127670 -1.949071 -1.428002 1.180927745e-38
0.132705 -1.942628 -1.421782 1.217770404e-38
0.131379 -1.944864 -1.423728 1.208550701e-38
0.129428 -1.947077 -1.425942 1.190111435e-38
0.129238 -1.949268 -1.427970 1.190111435e-38
0.132676 -1.944901 -1.423903 1.226989827e-38
0.136301 -1.944544 -1.425130 1.300674725e-38
0.140498 -1.941939 -1.424221 1.365140059e-38
0.143432 -1.942680 -1.423564 1.411202001e-38
0.140371 -1.944354 -1.426170 1.383579045e-38
0.143148 -1.945270 -1.425205 1.411237874e-38
0.132779 -1.947061 -1.426304 1.245429093e-38
0.134912 -1.946898 -1.426951 1.291491035e-38
0.136670 -1.946739 -1.427523 1.319113851e-38
0.133343 -1.949255 -1.428733 1.282271472e-38
0.136774 -1.948897 -1.429925 1.319113851e-38
0.140471 -1.946837 -1.427958 1.383579185e-38
0.142840 -1.947887 -1.426799 1.411202001e-38
0.138671 -1.949003 -1.430099 1.346772680e-38
0.141500 -1.949904 -1.429167 1.392798748e-38
0.142519 -1.950518 -1.428369 1.392798748e-38
0.140031 -1.949280 -1.429902 1.374395496e-38
0.116333 -1.950053 -1.430442 1.153089130e-38
0.119634 -1.950207 -1.430570 1.153160876e-38
0.122819 -1.950670 -1.430404 1.144013340e-38
0.119558 -1.952567 -1.432619 1.134721890e-38
0.123159 -1.953089 -1.432433 1.144049353e-38
0.119445 -1.954965 -1.434597 1.116354651e-38
0.122268 -1.955367 -1.434465 1.125610227e-38
0.122702 -1.954153 -1.433415 1.134829790e-38
0.119247 -1.957460 -1.436406 1.134793917e-38
0.120992 -1.957719 -1.436308 1.134829790e-38
0.125865 -1.951044 -1.430041 1.180891592e-38
0.129211 -1.951572 -1.430116 1.199330998e-38
0.125900 -1.953522 -1.432234 1.171672169e-38
0.129192 -1.953866 -1.432278 1.217734251e-38
0.122421 -1.957935 -1.436219 1.134865804e-38
0.125821 -1.955885 -1.434277 1.171708183e-38
0.129113 -1.956229 -1.434320 1.226989687e-38
0.125601 -1.958403 -1.436044 1.180927745e-38
0.132769 -1.951551 -1.430680 1.254648656e-38
0.132173 -1.953954 -1.432676 1.254612643e-38
0.137202 -1.951336 -1.431938 1.337517244e-38
0.141304 -1.952535 -1.430759 1.374395496e-38
0.142212 -1.953133 -1.429965 1.365176073e-38
0.136756 -1.953827 -1.433708 1.319113991e-38
0.141039 -1.955144 -1.432372 1.355956370e-38
0.141921 -1.955730 -1.431593 1.346736807e-38
0.139795 -1.951817 -1.431636 1.374359622e-38
0.139516 -1.954401 -1.433288 1.355956370e-38
0.130665 -1.956320 -1.434456 1.245428953e-38
0.132607 -1.956348 -1.434761 1.263832206e-38
0.129471 -1.958779 -1.436141 1.227025841e-38
0.132422 -1.958827 -1.436598 1.254648516e-38
0.136097 -1.957602 -1.436284 1.300674725e-38
0.136327 -1.956351 -1.435429 1.309894288e-38
0.140749 -1.957746 -1.433994 1.346736807e-38
0.141631 -1.958327 -1.433223 1.337517244e-38
0.140478 -1.960353 -1.435610 1.337517244e-38
0.141336 -1.960929 -1.434843 1.328297681e-38
0.135878 -1.958877 -1.437143 1.300638711e-38
0.139222 -1.957001 -1.434911 1.346736807e-38
0.138939 -1.959590 -1.436553 1.346736667e-38
0.151488 -1.953612 -1.418371 1.346772960e-38
0.148033 -1.955677 -1.421100 1.291491315e-38
0.148765 -1.954482 -1.420315 1.319114131e-38
0.150973 -1.957133 -1.419298 1.355956650e-38
0.157259 -1.952984 -1.415100 1.438753631e-38
0.160656 -1.951477 -1.412543 1.401660139e-38
0.163344 -1.952572 -1.411316 1.281698201e-38
0.163639 -1.951172 -1.410856 1.290881891e-38
0.160168 -1.954373 -1.413698 1.383185140e-38
0.162726 -1.955534 -1.412302 1.272478638e-38
0.154336 -1.955124 -1.417283 1.392763296e-38
0.157042 -1.956119 -1.416179 1.401803492e-38
0.153681 -1.958127 -1.418197 1.383507719e-38
0.156411 -1.959095 -1.417139 1.374108930e-38
0.159635 -1.957240 -1.414851 1.355526451e-38
0.162126 -1.958474 -1.413325 1.263223202e-38
0.159018 -1.960201 -1.415838 1.327867622e-38
0.161978 -1.961992 -1.414070 1.254003499e-38
0.147950 -1.945660 -1.419601 1.328333834e-38
0.145746 -1.944112 -1.421689 1.346736947e-38
0.146610 -1.947929 -1.421571 1.319114131e-38
0.147429 -1.948519 -1.420775 1.319114131e-38
0.145284 -1.946899 -1.422982 1.346700933e-38
0.150264 -1.947096 -1.417726 1.355992523e-38
0.152758 -1.948327 -1.416203 1.383651352e-38
0.149694 -1.950004 -1.418805 1.337553397e-38
0.152205 -1.951215 -1.417318 1.374431789e-38
0.145125 -1.949989 -1.423846 1.319078118e-38
0.146837 -1.951451 -1.421813 1.309894568e-38
0.144412 -1.952575 -1.425415 1.282235879e-38
0.146204 -1.954427 -1.422771 1.282271752e-38
0.149090 -1.952949 -1.419819 1.319150144e-38
0.155415 -1.949376 -1.415002 1.429641688e-38
0.158070 -1.950428 -1.413798 1.466376587e-38
0.154800 -1.952687 -1.416336 1.411238295e-38
0.145808 -1.957458 -1.423685 1.245393500e-38
0.147767 -1.958968 -1.421621 1.291491315e-38
0.150224 -1.960240 -1.420028 1.346736947e-38
0.149425 -1.963093 -1.420888 1.319078258e-38
0.147120 -1.961961 -1.422551 1.254613063e-38
0.144163 -1.965313 -1.428330 1.190147869e-38
0.146542 -1.965328 -1.423773 1.226990248e-38
0.148898 -1.966262 -1.421824 1.291455442e-38
0.145866 -1.967524 -1.425096 1.208551122e-38
0.148346 -1.969150 -1.422940 1.263796753e-38
0.152918 -1.961248 -1.418899 1.365032580e-38
0.155664 -1.962200 -1.417872 1.355633791e-38
0.152191 -1.964331 -1.419671 1.346593454e-38
0.152525 -1.962889 -1.419290 1.346629467e-38
0.154931 -1.965289 -1.418632 1.327975102e-38
0.155357 -1.963488 -1.418185 1.346414228e-38
0.160844 -1.964448 -1.415206 1.226380823e-38
0.157584 -1.966342 -1.417424 1.244855682e-38
0.158382 -1.963457 -1.416659 1.290989370e-38
0.160062 -1.967592 -1.415870 1.189466698e-38
0.155897 -1.972321 -1.419003 1.207905544e-38
0.158550 -1.973820 -1.417302 1.143332870e-38
0.151507 -1.967365 -1.420529 1.328118455e-38
0.154196 -1.968380 -1.419390 1.300280399e-38
0.150904 -1.970310 -1.421544 1.309679189e-38
0.153526 -1.971398 -1.420275 1.272585977e-38
0.156804 -1.969484 -1.418091 1.226380683e-38
0.118945 -1.960069 -1.438014 1.162452606e-38
0.118567 -1.962764 -1.439470 1.190075562e-38
0.122002 -1.963481 -1.438942 1.171744056e-38
0.121796 -1.962179 -1.438425 1.162524493e-38
0.118159 -1.965492 -1.440868 1.217770124e-38
0.121138 -1.966183 -1.440299 1.199402745e-38
0.117767 -1.968201 -1.442299 1.236209390e-38
0.120773 -1.968863 -1.441781 1.227061434e-38
0.121603 -1.960540 -1.437740 1.153304790e-38
0.125197 -1.961127 -1.437450 1.180963759e-38
0.128514 -1.961443 -1.437543 1.217806138e-38
0.124688 -1.963966 -1.438651 1.190183322e-38
0.128044 -1.964239 -1.438820 1.217842151e-38
0.123968 -1.966700 -1.439983 1.208658321e-38
0.127685 -1.966913 -1.440314 1.236245264e-38
0.123703 -1.969305 -1.441603 1.245500560e-38
0.127555 -1.969331 -1.442259 1.245500700e-38
0.129973 -1.961487 -1.437736 1.227025701e-38
0.132116 -1.961442 -1.438196 1.245428953e-38
0.130008 -1.964192 -1.439251 1.236245404e-38
0.131777 -1.964093 -1.439728 1.245428953e-38
0.140662 -1.963253 -1.436839 1.309894568e-38
0.140467 -1.965868 -1.438456 1.300674865e-38
0.135497 -1.961428 -1.438829 1.291455022e-38
0.135123 -1.963969 -1.440533 1.291455022e-38
0.138676 -1.962157 -1.438236 1.346772680e-38
0.138438 -1.964695 -1.439969 1.346772680e-38
0.129682 -1.966781 -1.440885 1.245464827e-38
0.131565 -1.966603 -1.441512 1.236245264e-38
0.128926 -1.969234 -1.442661 1.254720263e-38
0.131535 -1.968910 -1.443652 1.245464967e-38
0.133259 -1.968829 -1.444094 1.273087782e-38
0.140270 -1.968482 -1.440076 1.291491175e-38
0.140014 -1.971094 -1.441686 1.282235739e-38
0.134695 -1.966453 -1.442317 1.282271472e-38
0.135136 -1.968911 -1.444302 1.291491175e-38
0.138227 -1.967204 -1.441753 1.337553117e-38
0.138037 -1.969689 -1.443579 1.328369427e-38
0.117424 -1.970857 -1.443824 1.263868079e-38
0.120511 -1.971429 -1.443465 1.263903812e-38
0.117140 -1.973446 -1.445466 1.282307065e-38
0.122476 -1.971660 -1.443451 1.273123515e-38
0.120885 -1.973975 -1.445296 1.291562641e-38
0.116920 -1.975965 -1.447233 1.273087502e-38
0.116774 -1.978401 -1.449145 1.245464686e-38
0.120066 -1.977512 -1.447996 1.282342938e-38
0.120333 -1.976407 -1.447141 1.291562501e-38
0.123814 -1.971761 -1.443531 1.282378812e-38
0.123748 -1.974108 -1.445600 1.300818078e-38
0.127127 -1.973900 -1.446544 1.282378812e-38
0.119718 -1.978807 -1.449027 1.263939826e-38
0.123641 -1.976500 -1.447590 1.291598515e-38
0.125956 -1.976370 -1.448218 1.282378952e-38
0.127432 -1.976290 -1.448612 1.273159389e-38
0.123470 -1.978965 -1.449453 1.273159249e-38
0.125417 -1.978892 -1.449922 1.263939686e-38
0.127232 -1.978786 -1.450419 1.254720123e-38
0.127709 -1.971732 -1.444645 1.273159389e-38
0.131888 -1.971192 -1.445902 1.263868219e-38
0.139732 -1.973705 -1.443294 1.254612923e-38
0.139486 -1.976305 -1.444925 1.236173797e-38
0.135021 -1.971313 -1.446274 1.291527048e-38
0.131344 -1.973291 -1.447599 1.263903952e-38
0.134844 -1.973784 -1.448125 1.291527048e-38
0.137854 -1.972167 -1.445418 1.328369427e-38
0.137638 -1.974681 -1.447193 1.328333414e-38
0.139254 -1.978899 -1.446571 1.217770545e-38
0.138979 -1.981493 -1.448207 1.208550841e-38
0.134586 -1.976344 -1.449819 1.291491035e-38
0.130521 -1.978599 -1.451314 1.263867939e-38
0.134309 -1.978926 -1.451474 1.300710598e-38
0.137351 -1.977274 -1.448829 1.309894288e-38
0.137027 -1.979908 -1.450392 1.309894288e-38
0.143474 -1.967571 -1.430430 1.199331419e-38
0.143902 -1.968357 -1.429248 1.190111856e-38
0.143129 -1.970155 -1.432070 1.190147869e-38
0.143560 -1.971011 -1.430776 1.180928166e-38
0.144867 -1.969800 -1.427111 1.190111856e-38
0.145604 -1.970469 -1.426173 1.208515108e-38
0.147870 -1.971953 -1.424204 1.254541317e-38
0.144415 -1.972350 -1.428786 1.180892293e-38
0.145248 -1.973138 -1.427674 1.199295685e-38
0.147494 -1.974644 -1.425667 1.254505444e-38
0.142899 -1.972775 -1.433672 1.180928166e-38
0.143332 -1.973539 -1.432527 1.171708603e-38
0.142642 -1.975387 -1.435283 1.162489040e-38
0.143113 -1.976056 -1.434296 1.153269477e-38
0.144320 -1.975013 -1.430344 1.180856419e-38
0.145022 -1.975663 -1.429430 1.190075982e-38
0.147243 -1.977199 -1.427371 1.226810741e-38
0.144700 -1.977927 -1.431587 1.171636856e-38
0.147103 -1.979628 -1.429296 1.180712926e-38
0.152498 -1.973778 -1.421527 1.235671852e-38
0.150057 -1.975917 -1.424091 1.245034768e-38
0.152504 -1.977082 -1.422667 1.171063165e-38
0.155452 -1.975534 -1.419838 1.161771855e-38
0.157816 -1.976910 -1.418061 1.106454758e-38
0.154928 -1.978391 -1.421008 1.124893603e-38
0.150390 -1.973155 -1.422735 1.291168316e-38
0.149786 -1.978520 -1.425714 1.208120643e-38
0.152180 -1.979717 -1.424229 1.124929337e-38
0.150474 -1.981452 -1.426983 1.143476082e-38
0.151965 -1.982230 -1.426007 1.097234914e-38
0.154554 -1.981081 -1.422474 1.088015632e-38
0.156390 -1.985157 -1.422118 1.032626647e-38
0.154281 -1.983659 -1.424136 1.014187521e-38
0.149518 -1.980947 -1.427620 1.171242391e-38
0.142627 -1.965588 -1.433453 1.217734671e-38
0.142323 -1.968191 -1.435070 1.199331419e-38
0.142006 -1.970794 -1.436684 1.190111856e-38
0.141585 -1.973412 -1.438257 1.171708603e-38
0.144880 -1.980292 -1.433170 1.143978027e-38
0.147050 -1.981961 -1.431391 1.134650845e-38
0.146664 -1.983973 -1.433939 1.106992156e-38
0.144829 -1.982700 -1.435647 1.134758464e-38
0.143084 -1.983477 -1.439929 1.116391225e-38
0.144949 -1.984842 -1.438079 1.116355212e-38
0.144972 -1.987265 -1.440773 1.107099635e-38
0.147060 -1.988772 -1.438007 1.106992156e-38
0.151632 -1.984565 -1.428047 1.060320789e-38
0.151731 -1.985946 -1.428889 1.041881663e-38
0.156086 -1.987759 -1.423735 1.060321210e-38
0.154065 -1.986172 -1.425912 1.014187381e-38
0.151791 -1.987211 -1.429678 1.032626227e-38
0.153880 -1.988653 -1.427746 1.023406944e-38
0.149417 -1.983333 -1.429621 1.115924873e-38
0.149348 -1.985683 -1.431684 1.079046761e-38
0.151872 -1.989843 -1.431319 1.004931805e-38
0.153735 -1.991088 -1.429662 9.864209325e-39
0.147240 -1.986429 -1.435408 1.097736860e-38
0.149260 -1.988056 -1.433709 1.079010888e-38
0.148184 -1.989712 -1.436704 1.088373944e-38
0.149157 -1.990444 -1.435707 1.069827338e-38
0.151355 -1.992004 -1.433605 9.957479751e-39
0.140831 -1.983581 -1.444788 1.144049774e-38
0.142821 -1.985477 -1.442519 1.125574775e-38
0.165974 -1.953653 -1.410061 1.152552573e-38
0.166862 -1.951009 -1.409185 1.152552713e-38
0.165274 -1.956704 -1.410887 1.143333150e-38
0.167842 -1.957854 -1.409510 1.060357223e-38
0.167056 -1.960629 -1.410499 1.060357223e-38
0.164631 -1.959693 -1.411824 1.143333150e-38
0.163998 -1.962672 -1.412781 1.143404896e-38
0.164316 -1.961193 -1.412318 1.143369023e-38
0.166507 -1.963885 -1.411290 1.051281013e-38
0.165104 -1.969546 -1.412504 1.032805733e-38
0.163251 -1.965776 -1.413513 1.152660332e-38
0.165713 -1.967042 -1.411931 1.042025577e-38
0.159408 -1.970884 -1.416475 1.161843882e-38
0.161730 -1.972014 -1.414929 1.088123111e-38
0.162574 -1.969478 -1.414127 1.115745927e-38
0.160946 -1.975160 -1.415589 1.060392676e-38
0.160184 -1.978240 -1.416336 1.032698254e-38
0.157545 -1.980009 -1.418890 1.069540773e-38
0.159564 -1.981244 -1.417276 1.014079762e-38
0.156832 -1.982592 -1.420520 1.060357223e-38
0.159041 -1.984100 -1.418448 1.004860339e-38
0.161351 -1.985536 -1.416566 9.309604820e-39
0.158107 -1.991960 -1.423212 9.403592711e-39
0.155955 -1.990267 -1.425315 9.958201420e-39
0.156111 -1.992987 -1.427048 9.219920317e-39
0.158038 -1.994312 -1.425274 8.573833444e-39
0.160859 -1.995179 -1.424395 8.205050924e-39
0.160804 -1.997132 -1.426765 8.020662467e-39
0.176591 -1.990592 -1.426592 6.450094155e-39
0.175140 -1.991123 -1.427633 6.171354871e-39
0.176726 -1.991280 -1.427667 6.170996138e-39
0.173576 -1.991611 -1.428706 6.172072335e-39
0.173883 -1.992711 -1.430703 6.172432469e-39
0.176939 -1.993318 -1.430283 6.078084445e-39
0.173768 -1.995113 -1.432675 6.357539792e-39
0.176637 -1.995927 -1.431891 6.078084445e-39
0.092941 -2.008736 -1.402083 7.090446915e-39
0.093690 -2.007189 -1.404697 7.735456191e-39
0.094424 -2.004877 -1.406884 7.919847450e-39
0.094369 -2.005620 -1.407333 8.012043080e-39
0.093109 -2.009698 -1.406414 8.012043080e-39
0.093857 -2.008151 -1.409028 8.657052355e-39
0.093548 -2.008767 -1.407984 8.380825600e-39
0.094303 -2.005956 -1.407557 8.104238710e-39
0.103645 -2.007697 -1.411524 1.105629113e-38
0.104868 -2.008194 -1.410948 1.105700999e-38
0.092224 -2.012110 -1.408232 8.380825600e-39
0.091455 -2.013474 -1.406086 8.012043080e-39
0.092628 -2.011121 -1.407466 8.196434340e-39
0.093037 -2.010583 -1.410825 9.302780497e-39
0.090613 -2.014290 -1.410289 8.933999379e-39
0.091814 -2.012887 -1.412754 9.855954276e-39
0.104894 -2.008551 -1.411372 1.105664986e-38
0.100676 -2.003181 -1.418223 1.106024559e-38
0.102430 -2.002898 -1.418993 1.124499698e-38
0.103451 -1.998964 -1.418290 1.124607598e-38
0.103145 -1.999829 -1.418196 1.124607598e-38
0.103736 -1.999676 -1.418548 1.133827161e-38
0.106675 -1.998827 -1.420440 1.226022791e-38
0.104161 -2.002505 -1.419935 1.161485850e-38
0.107188 -2.001394 -1.421499 1.216803228e-38
0.102222 -2.007132 -1.412172 1.105593099e-38
0.099538 -2.008387 -1.415519 1.105557226e-38
0.102104 -2.009538 -1.414139 1.114776789e-38
0.104859 -2.010478 -1.413130 1.105664986e-38
0.100156 -2.008816 -1.417809 1.124032365e-38
0.101241 -2.010533 -1.418229 1.142471491e-38
0.102154 -2.011756 -1.416435 1.133251928e-38
0.102420 -2.009123 -1.420701 1.115316009e-38
0.104119 -2.005185 -1.421475 1.170669400e-38
0.103948 -2.007824 -1.423058 1.179924976e-38
0.105495 -2.006532 -1.425409 1.235242354e-38
0.104458 -2.015159 -1.423083 1.161485850e-38
0.103379 -2.012711 -1.422245 1.124607598e-38
0.104025 -2.010542 -1.424559 1.198364102e-38
0.104984 -2.009063 -1.427103 1.235242354e-38
0.104932 -2.013235 -1.425622 1.216803228e-38
0.105904 -2.012049 -1.428327 1.253681480e-38
0.105783 -2.012270 -1.427951 1.253681480e-38
0.106023 -2.017900 -1.423838 1.207583665e-38
0.107164 -2.016929 -1.426578 1.244461917e-38
0.106929 -2.017273 -1.425985 1.235242354e-38
0.105955 -2.012151 -1.428358 1.253681480e-38
0.107214 -2.017020 -1.426604 1.244461917e-38
0.106294 -2.018438 -1.424005 1.216803228e-38
0.107504 -1.994612 -1.421501 1.272120606e-38
0.108581 -1.997818 -1.421887 1.253681480e-38
0.117239 -1.980851 -1.451146 1.217841731e-38
0.115038 -1.982759 -1.453533 1.171708042e-38
0.116678 -1.981835 -1.452173 1.190219055e-38
0.119865 -1.981243 -1.450994 1.227097307e-38
0.116672 -1.983063 -1.453343 1.171779789e-38
0.119817 -1.983570 -1.453098 1.190218915e-38
0.123303 -1.981424 -1.451324 1.245500420e-38
0.124841 -1.981402 -1.451638 1.236316870e-38
0.127053 -1.981259 -1.452267 1.245500420e-38
0.123591 -1.983808 -1.453399 1.208694054e-38
0.126964 -1.983632 -1.454290 1.227097447e-38
0.116694 -1.985313 -1.455584 1.144120960e-38
0.119850 -1.985808 -1.455362 1.153376536e-38
0.116690 -1.987591 -1.457776 1.125681694e-38
0.122852 -1.985828 -1.455254 1.171815662e-38
0.120053 -1.988557 -1.458055 1.134937270e-38
0.123208 -1.988352 -1.457734 1.153376536e-38
0.129451 -1.981084 -1.452980 1.254684249e-38
0.128722 -1.983546 -1.454747 1.254684249e-38
0.138687 -1.984089 -1.449836 1.208550841e-38
0.138432 -1.986688 -1.451468 1.199331278e-38
0.130794 -1.981104 -1.453192 1.254684390e-38
0.134068 -1.981468 -1.453200 1.300710598e-38
0.130639 -1.983550 -1.455086 1.254684249e-38
0.133841 -1.983994 -1.454954 1.291491035e-38
0.136724 -1.982519 -1.451997 1.300710598e-38
0.136441 -1.985107 -1.453640 1.282271472e-38
0.127407 -1.985976 -1.456457 1.227061574e-38
0.126826 -1.988756 -1.458633 1.199402745e-38
0.138207 -1.989289 -1.453103 1.180928166e-38
0.137977 -1.992192 -1.454920 1.162453027e-38
0.130462 -1.986022 -1.456937 1.236245264e-38
0.133574 -1.986565 -1.456629 1.282307345e-38
0.130228 -1.988556 -1.458676 1.227025701e-38
0.133261 -1.989187 -1.458214 1.273087782e-38
0.136141 -1.987715 -1.455250 1.263832346e-38
0.135814 -1.990353 -1.456808 1.245393220e-38
0.116616 -1.989947 -1.459828 1.116461991e-38
0.119323 -1.990328 -1.459708 1.116498004e-38
0.116683 -1.992771 -1.462180 1.098058878e-38
0.119687 -1.992810 -1.461638 1.107278581e-38
0.123153 -1.990687 -1.459824 1.134973283e-38
0.123030 -1.993098 -1.461781 1.125717847e-38
0.125191 -1.993196 -1.462016 1.153376676e-38
0.126357 -1.990814 -1.460200 1.171815942e-38
0.126458 -1.993292 -1.462091 1.162596239e-38
0.113811 -1.994173 -1.464456 1.070364316e-38
0.116455 -1.994674 -1.463910 1.070436202e-38
0.119558 -1.995229 -1.463582 1.098095031e-38
0.116443 -1.996962 -1.466086 1.061216639e-38
0.119462 -1.997610 -1.465592 1.107314454e-38
0.123575 -1.995552 -1.463792 1.125753720e-38
0.122876 -1.998298 -1.466039 1.134973424e-38
0.126335 -1.995702 -1.464050 1.162560366e-38
0.126245 -1.998077 -1.466071 1.153376676e-38
0.129979 -1.991107 -1.460386 1.217842011e-38
0.132947 -1.991810 -1.459796 1.273087642e-38
0.129765 -1.993618 -1.462166 1.217805997e-38
0.132674 -1.994388 -1.461459 1.273087642e-38
0.135491 -1.992986 -1.458372 1.236209530e-38
0.135202 -1.995581 -1.460004 1.227025841e-38
0.129595 -1.996081 -1.464032 1.217805997e-38
0.132449 -1.996912 -1.463217 1.263904093e-38
0.129443 -1.998524 -1.465932 1.217841871e-38
0.132253 -1.999405 -1.465030 1.254684530e-38
0.134958 -1.998127 -1.461724 1.217770404e-38
0.134753 -2.000628 -1.463521 1.199367152e-38
0.137074 -2.002052 -1.461660 1.116426958e-38
0.147051 -1.991056 -1.440188 1.097772733e-38
0.146092 -1.992648 -1.443306 1.097844339e-38
0.146999 -1.993388 -1.442284 1.097736860e-38
0.146748 -1.995626 -1.444496 1.088481423e-38
0.146934 -1.997627 -1.445774 1.079261860e-38
0.153529 -1.993810 -1.432334 9.587621034e-39
0.155639 -1.996841 -1.432962 9.310674011e-39
0.148997 -1.993177 -1.438189 1.079010888e-38
0.151313 -1.994325 -1.435721 9.773447224e-39
0.151331 -1.996579 -1.437954 9.680892862e-39
0.149308 -1.995349 -1.439559 1.060571762e-38
0.153702 -1.995673 -1.433994 9.680173995e-39
0.153784 -1.997855 -1.436353 9.679813862e-39
0.156333 -1.999025 -1.434940 9.125924019e-39
0.148992 -1.997450 -1.441979 1.060499875e-38
0.151323 -1.998890 -1.440289 9.496142869e-39
0.149020 -1.999692 -1.444233 1.051280452e-38
0.151411 -2.001039 -1.442508 9.588338499e-39
0.153886 -2.000016 -1.438753 9.402153578e-39
0.156500 -2.001113 -1.437467 9.585830175e-39
0.153989 -2.001813 -1.440802 9.494349207e-39
0.156697 -2.003101 -1.439987 1.013900395e-38
0.140862 -1.986388 -1.446546 1.134830211e-38
0.142765 -1.987813 -1.444607 1.125574775e-38
0.141322 -1.989343 -1.447737 1.116391085e-38
0.142637 -1.990230 -1.446553 1.116355071e-38
0.140424 -1.988687 -1.448626 1.134830211e-38
0.145294 -1.989565 -1.442257 1.107099635e-38
0.144898 -1.991720 -1.444576 1.097916086e-38
0.142175 -1.992414 -1.448815 1.107135508e-38
0.140261 -1.991142 -1.450505 1.125610648e-38
0.140127 -1.993565 -1.452442 1.116391085e-38
0.144805 -1.994097 -1.446593 1.088660509e-38
0.142584 -1.994934 -1.450303 1.088732396e-38
0.144740 -1.996444 -1.448663 1.070221664e-38
0.148105 -2.001370 -1.447222 1.051388072e-38
0.149057 -2.001926 -1.446503 1.032841467e-38
0.151549 -2.003159 -1.444978 9.587981168e-39
0.149052 -2.003762 -1.448264 1.032805593e-38
0.150177 -2.004723 -1.448066 1.005039285e-38
0.154418 -2.006658 -1.446789 9.862774396e-39
0.157273 -2.007292 -1.445785 1.133682688e-38
0.151653 -2.005634 -1.447688 9.864207924e-39
0.137802 -1.994504 -1.456358 1.134830211e-38
0.139980 -1.996002 -1.454352 1.107171522e-38
0.142324 -1.997400 -1.452536 1.079512833e-38
0.137655 -1.997124 -1.457976 1.125610648e-38
0.139800 -1.998476 -1.456198 1.097987832e-38
0.142177 -1.999837 -1.454447 1.079476960e-38
0.143574 -1.998141 -1.451574 1.079476960e-38
0.144648 -1.998820 -1.450682 1.070221523e-38
0.146762 -2.000474 -1.448414 1.060787001e-38
0.144307 -2.001127 -1.452766 1.060966227e-38
0.146710 -2.002805 -1.450511 1.069970551e-38
0.137594 -1.999754 -1.459594 1.107207535e-38
0.139608 -2.000965 -1.458018 1.097951959e-38
0.142009 -2.002298 -1.456316 1.070293410e-38
0.138252 -2.002743 -1.460767 1.088768409e-38
0.139438 -2.003428 -1.459884 1.079512833e-38
0.141860 -2.004738 -1.458223 1.061073847e-38
0.144479 -2.003205 -1.454033 1.060966227e-38
0.146671 -2.005123 -1.452633 1.060787141e-38
0.146183 -2.007162 -1.455120 1.051495832e-38
0.144259 -2.006075 -1.456515 1.051710791e-38
0.149066 -2.006464 -1.450918 1.014330594e-38
0.151685 -2.007556 -1.449642 1.004824185e-38
0.149107 -2.008692 -1.453197 1.014294721e-38
0.151738 -2.009770 -1.451946 9.771656364e-39
0.154484 -2.008447 -1.448720 1.013900395e-38
0.157398 -2.009212 -1.448022 1.096840589e-38
0.154561 -2.010636 -1.451070 9.770582970e-39
0.157511 -2.011360 -1.450442 1.013864662e-38
0.116460 -1.999218 -1.468316 1.061216779e-38
0.119403 -1.999949 -1.467676 1.098095031e-38
0.116506 -2.001440 -1.470605 1.051961343e-38
0.122263 -2.000248 -1.467714 1.125753720e-38
0.126151 -2.000455 -1.468085 1.153376676e-38
0.122655 -2.002611 -1.469841 1.116498424e-38
0.126040 -2.002852 -1.470067 1.153340803e-38
0.116533 -2.002478 -1.471690 1.042741640e-38
0.119574 -2.002533 -1.470111 1.079691779e-38
0.116566 -2.003648 -1.472921 1.033522077e-38
0.119439 -2.004458 -1.472143 1.070436342e-38
0.116630 -2.005851 -1.475245 1.024302514e-38
0.119520 -2.006642 -1.474501 1.061216920e-38
0.122665 -2.004874 -1.472059 1.107314735e-38
0.125917 -2.005263 -1.472025 1.162560506e-38
0.122660 -2.007154 -1.474247 1.116498424e-38
0.125467 -2.007437 -1.473855 1.162596379e-38
0.129281 -2.000978 -1.467813 1.217842011e-38
0.132062 -2.001891 -1.466854 1.254684390e-38
0.129090 -2.003610 -1.469777 1.217842151e-38
0.131863 -2.004385 -1.468663 1.245464827e-38
0.134573 -2.003102 -1.465367 1.180963899e-38
0.136923 -2.004494 -1.463562 1.107171522e-38
0.134400 -2.005569 -1.467226 1.171708463e-38
0.136795 -2.006910 -1.465510 1.097951959e-38
0.127237 -2.005531 -1.471834 1.190219195e-38
0.128909 -2.005940 -1.471481 1.227061574e-38
0.128718 -2.008426 -1.473305 1.227061714e-38
0.131458 -2.009384 -1.472266 1.227025841e-38
0.131985 -2.006773 -1.470146 1.217806278e-38
0.134228 -2.008035 -1.469086 1.162524773e-38
0.136674 -2.009319 -1.467471 1.088768409e-38
0.133631 -2.010312 -1.471172 1.153269337e-38
0.136556 -2.011724 -1.469438 1.088768269e-38
0.116653 -2.008099 -1.477489 1.015082951e-38
0.119554 -2.008877 -1.476767 1.061216779e-38
0.116631 -2.010397 -1.479645 9.966439654e-39
0.125636 -2.010123 -1.475871 1.171780209e-38
0.119603 -2.011251 -1.478958 1.051961483e-38
0.122713 -2.009696 -1.476475 1.116498564e-38
0.122517 -2.011861 -1.478365 1.107279001e-38
0.125493 -2.012557 -1.477788 1.162560646e-38
0.116613 -2.011439 -1.480598 9.966079520e-39
0.116590 -2.012717 -1.481764 9.873885291e-39
0.119498 -2.013488 -1.481054 1.024338668e-38
0.116579 -2.015003 -1.483940 9.782048394e-39
0.119489 -2.015771 -1.483236 1.024302654e-38
0.122439 -2.014222 -1.480410 1.088839875e-38
0.125359 -2.014980 -1.479724 1.162560506e-38
0.122381 -2.016561 -1.482495 1.088839735e-38
0.125248 -2.017376 -1.481706 1.162560506e-38
0.128531 -2.010909 -1.475136 1.227061714e-38
0.131264 -2.011874 -1.474083 1.217842151e-38
0.128351 -2.013383 -1.476980 1.227061714e-38
0.131076 -2.014356 -1.475914 1.217806278e-38
0.134225 -2.012860 -1.472464 1.144085647e-38
0.136436 -2.014131 -1.471402 1.079548706e-38
0.133716 -2.015425 -1.474679 1.134865944e-38
0.128185 -2.015841 -1.478855 1.227061574e-38
0.130903 -2.016824 -1.477772 1.208622588e-38
0.128048 -2.018267 -1.480785 1.217842151e-38
0.130757 -2.019259 -1.479685 1.199403025e-38
0.136186 -2.016724 -1.473590 1.061109580e-38
0.133555 -2.017879 -1.476561 1.125646521e-38
0.136179 -2.018965 -1.475296 1.061109580e-38
0.133414 -2.020309 -1.478484 1.125646521e-38
0.136059 -2.021372 -1.477259 1.061109440e-38
0.139189 -2.006173 -1.462191 1.061073707e-38
0.141756 -2.007128 -1.460216 1.061037834e-38
0.140194 -2.008748 -1.463180 1.051854144e-38
0.141684 -2.009482 -1.462274 1.042634861e-38
0.146643 -2.008667 -1.455975 1.051495832e-38
0.144208 -2.008405 -1.458613 1.033271805e-38
0.146639 -2.009706 -1.456969 1.060643508e-38
0.144197 -2.010691 -1.460790 1.033271805e-38
0.146683 -2.011932 -1.459253 1.060607635e-38
0.139194 -2.008247 -1.463803 1.051890157e-38
0.141716 -2.011786 -1.464182 1.042562975e-38
0.144188 -2.012976 -1.462971 1.033200059e-38
0.146759 -2.014122 -1.461600 1.042132776e-38
0.144153 -2.014973 -1.464796 1.023980496e-38
0.145395 -2.015791 -1.464520 1.014617580e-38
0.139099 -2.010626 -1.465816 1.051854144e-38
0.139010 -2.012999 -1.467839 1.051890157e-38
0.141529 -2.014203 -1.466366 1.033379285e-38
0.147666 -2.010219 -1.456333 1.032877200e-38
0.149150 -2.010919 -1.455480 9.958197216e-39
0.151801 -2.011975 -1.454267 9.218483987e-39
0.149168 -2.011985 -1.456568 9.958198617e-39
0.151854 -2.014043 -1.456428 9.310320884e-39
0.149196 -2.013141 -1.457770 9.958200019e-39
0.154639 -2.012823 -1.453422 9.124854828e-39
0.157609 -2.013875 -1.453172 9.401082986e-39
0.154694 -2.014747 -1.455448 8.940823702e-39
0.149319 -2.015279 -1.460209 1.004967678e-38
0.151976 -2.016329 -1.459007 9.218125254e-39
0.149461 -2.017395 -1.462685 9.680535530e-39
0.152181 -2.018374 -1.461609 8.941179632e-39
0.146805 -2.016620 -1.464158 1.005218651e-38
0.138929 -2.015363 -1.469879 1.042670594e-38
0.141466 -2.016547 -1.468441 1.024159862e-38
0.138859 -2.017715 -1.471940 1.033451031e-38
0.141436 -2.018854 -1.470582 1.014940299e-38
0.144115 -2.017605 -1.467226 1.014761073e-38
0.146826 -2.018595 -1.466129 9.867436516e-39
0.144124 -2.019869 -1.469441 1.005505637e-38
0.146899 -2.020788 -1.468471 9.498655398e-39
0.138554 -2.020314 -1.474396 1.024231468e-38
0.141420 -2.021145 -1.472750 1.014904286e-38
0.141385 -2.023328 -1.474752 1.005720596e-38
0.138700 -2.022440 -1.476025 1.024195455e-38
0.144154 -2.022110 -1.471700 9.962859336e-39
0.146999 -2.022951 -1.470866 9.406459768e-39
0.144171 -2.024295 -1.473863 9.962140470e-39
0.147072 -2.024744 -1.472820 9.406101035e-39
0.149513 -2.018610 -1.464018 9.496145672e-39
0.152314 -2.020092 -1.463673 8.941181033e-39
0.155081 -2.019155 -1.460883 9.216691726e-39
0.155155 -2.020011 -1.461936 9.308887356e-39
0.149552 -2.019568 -1.465062 9.403589908e-39
0.149721 -2.021654 -1.467594 9.034450058e-39
0.152635 -2.022419 -1.466895 8.941181033e-39
0.149949 -2.023971 -1.470526 8.941897097e-39
0.152616 -2.024119 -1.469500 8.941182435e-39
0.150179 -2.025693 -1.472890 8.941897097e-39
0.155785 -2.023309 -1.467039 9.309246088e-39
0.156215 -2.024717 -1.469703 1.004645239e-38
0.156724 -2.025455 -1.471964 1.032303928e-38
0.158079 -1.996618 -1.427808 8.296530490e-39
0.158539 -1.998302 -1.430655 7.927029105e-39
0.161437 -1.999084 -1.429926 8.112139231e-39
0.158898 -1.999910 -1.433300 7.556808853e-39
0.161650 -2.000892 -1.432321 7.927029105e-39
0.162884 -1.998872 -1.430528 8.388727522e-39
0.165821 -1.997817 -1.432749 8.757867372e-39
0.166142 -2.000743 -1.433653 9.403958450e-39
0.168512 -2.001570 -1.433244 9.497589009e-39
0.161783 -2.003804 -1.434112 8.297610892e-39
0.163515 -2.005326 -1.431986 8.481284687e-39
0.164268 -2.003342 -1.432356 8.758231710e-39
0.162008 -2.006674 -1.435397 8.297250758e-39
0.162965 -2.008211 -1.433107 8.296174561e-39
0.161558 -2.005772 -1.436760 8.389446388e-39
0.170826 -2.004661 -1.422690 1.105916659e-38
0.174074 -2.005053 -1.422648 1.032124282e-38
0.162680 -2.009073 -1.443357 8.202181065e-39
0.163626 -2.009034 -1.435909 8.202541199e-39
0.163970 -2.009368 -1.437276 8.017431073e-39
0.164649 -2.009650 -1.439609 8.108907836e-39
0.165129 -2.010354 -1.441748 8.017070939e-39
0.160107 -2.008172 -1.444958 1.253501133e-38
0.160279 -2.010012 -1.447261 1.133611081e-38
0.162898 -2.010443 -1.445344 8.201462199e-39
0.160439 -2.012108 -1.449773 9.953177765e-39
0.030059 -2.125775 -1.384312 1.189929687e-38
0.031391 -2.125345 -1.383389 1.180709984e-38
0.031761 -2.125655 -1.384813 1.180709844e-38
0.035630 -2.124813 -1.375178 1.328078938e-38
0.033147 -2.123944 -1.377082 1.226735772e-38
0.036114 -2.125216 -1.377037 1.328043065e-38
0.017582 -2.134990 -1.391177 1.125427078e-38
0.013499 -2.137079 -1.391989 1.134610627e-38
0.015624 -2.136432 -1.393839 1.143830330e-38
0.014361 -2.138543 -1.395861 1.106987671e-38
0.016493 -2.137617 -1.397939 1.106952219e-38
0.014107 -2.141184 -1.397650 1.079293249e-38
0.015483 -2.139990 -1.399798 1.088548546e-38
0.014780 -2.144244 -1.398696 1.033159982e-38
0.015541 -2.142701 -1.401306 1.060818530e-38
0.017301 -2.138783 -1.402060 1.088513093e-38
0.019702 -2.137762 -1.404129 1.106916906e-38
0.020688 -2.136749 -1.403052 1.134540002e-38
0.016674 -2.141277 -1.403793 1.079293109e-38
0.018367 -2.140031 -1.406095 1.088513093e-38
0.021182 -2.137320 -1.405104 1.125356172e-38
0.021549 -2.138531 -1.407821 1.125355892e-38
0.026961 -2.127483 -1.386859 1.180710264e-38
0.028356 -2.126546 -1.385617 1.189929967e-38
0.029442 -2.127021 -1.388486 1.208368953e-38
0.032391 -2.126165 -1.387216 1.189893533e-38
0.032951 -2.126607 -1.389344 1.189929407e-38
0.027514 -2.128567 -1.391063 1.199149390e-38
0.033393 -2.126960 -1.391027 1.189929547e-38
0.026180 -2.130438 -1.393321 1.171454407e-38
0.028255 -2.129711 -1.395206 1.199113377e-38
0.036162 -2.126626 -1.389713 1.235955195e-38
0.040800 -2.128738 -1.384387 1.401799569e-38
0.042333 -2.130592 -1.384656 1.447933257e-38
0.041128 -2.128760 -1.387771 1.392580146e-38
0.043322 -2.132090 -1.385001 1.466372663e-38
0.044158 -2.132490 -1.388408 1.457152960e-38
0.027146 -2.131626 -1.397402 1.162234844e-38
0.029109 -2.130891 -1.399311 1.199113377e-38
0.039279 -2.127357 -1.388716 1.337263188e-38
0.037457 -2.127613 -1.393715 1.254394461e-38
0.040149 -2.128161 -1.392135 1.337299062e-38
0.040519 -2.128475 -1.393562 1.346518484e-38
0.038315 -2.128395 -1.397076 1.254394461e-38
0.041146 -2.129004 -1.395977 1.346518344e-38
0.038732 -2.128731 -1.398669 1.263613884e-38
0.041710 -2.129425 -1.398096 1.355701894e-38
0.039322 -2.129146 -1.400859 1.272833447e-38
0.042160 -2.129690 -1.399721 1.355701754e-38
0.044855 -2.131508 -1.399377 1.420202821e-38
0.045970 -2.132689 -1.399478 1.447897243e-38
0.045313 -2.131697 -1.400950 1.420238554e-38
0.022771 -2.134759 -1.397499 1.143795018e-38
0.025154 -2.134111 -1.399280 1.134504269e-38
0.022519 -2.135965 -1.401675 1.143759285e-38
0.023754 -2.135281 -1.400657 1.143759285e-38
0.037880 -2.151600 -1.391088 8.765018198e-39
0.028146 -2.132735 -1.401569 1.162234984e-38
0.024214 -2.135680 -1.402439 1.143759285e-38
0.025864 -2.135245 -1.403433 1.134540142e-38
0.028388 -2.134264 -1.405462 1.134540422e-38
0.029072 -2.133199 -1.404510 1.162234984e-38
0.029873 -2.132043 -1.403446 1.189893954e-38
0.030104 -2.133623 -1.407710 1.162234984e-38
0.036028 -2.130432 -1.407139 1.236027782e-38
0.037599 -2.130198 -1.406930 1.235991769e-38
0.033055 -2.132179 -1.409645 1.208333220e-38
0.034388 -2.131147 -1.408381 1.226772346e-38
0.023189 -2.137087 -1.405841 1.134575735e-38
0.024738 -2.136233 -1.404566 1.134540002e-38
0.025248 -2.136804 -1.406666 1.134575875e-38
0.026643 -2.136402 -1.407563 1.134540142e-38
0.024720 -2.138483 -1.409723 1.116136469e-38
0.025691 -2.137466 -1.408652 1.125356172e-38
0.029132 -2.135409 -1.409603 1.134504549e-38
0.026110 -2.138120 -1.410556 1.125356032e-38
0.027632 -2.137625 -1.411624 1.125356172e-38
0.030049 -2.136609 -1.413688 1.125284986e-38
0.031148 -2.134427 -1.411736 1.153015562e-38
0.043114 -2.130252 -1.403158 1.355701754e-38
0.047387 -2.134776 -1.399938 1.466336650e-38
0.045899 -2.131933 -1.402958 1.420202681e-38
0.048075 -2.134817 -1.402688 1.475556073e-38
0.035057 -2.131633 -1.410882 1.226772206e-38
0.036268 -2.131417 -1.411446 1.235991769e-38
0.038424 -2.130757 -1.409974 1.235991629e-38
0.039008 -2.131244 -1.412218 1.245211051e-38
0.032041 -2.135872 -1.415925 1.152979688e-38
0.033764 -2.133313 -1.413798 1.199113657e-38
0.035394 -2.131907 -1.412170 1.226772206e-38
0.039421 -2.131599 -1.413814 1.245210911e-38
0.034814 -2.134556 -1.417839 1.189858080e-38
0.040895 -2.132295 -1.417060 1.235991629e-38
0.044302 -2.130940 -1.407433 1.355701754e-38
0.045236 -2.131462 -1.410772 1.355701754e-38
0.045753 -2.131753 -1.412623 1.364921317e-38
0.050543 -2.135836 -1.410546 1.484739482e-38
0.042203 -2.131292 -1.412532 1.291272292e-38
0.043372 -2.131961 -1.415877 1.282088743e-38
0.046265 -2.132016 -1.414433 1.364921457e-38
0.043776 -2.132221 -1.417357 1.282052729e-38
0.044394 -2.132572 -1.419574 1.272869180e-38
0.047232 -2.132484 -1.417820 1.364957470e-38
0.049038 -2.133149 -1.413662 1.429386231e-38
0.051239 -2.135844 -1.413285 1.475520059e-38
0.045913 -2.132978 -1.422645 1.309711559e-38
0.048351 -2.132883 -1.421605 1.355702034e-38
0.048760 -2.132959 -1.422918 1.355702034e-38
0.051531 -2.134102 -1.421316 1.401727962e-38
0.016769 -2.145786 -1.402428 1.005501573e-38
0.016190 -2.147416 -1.399775 1.005573179e-38
0.017330 -2.147154 -1.402917 9.963536163e-39
0.017181 -2.144132 -1.405152 1.023940559e-38
0.018187 -2.142667 -1.407681 1.051634981e-38
0.018323 -2.147387 -1.406296 9.963178832e-39
0.018793 -2.145554 -1.409008 1.005465840e-38
0.020107 -2.141493 -1.409908 1.060854544e-38
0.022372 -2.141255 -1.412230 1.079293670e-38
0.020055 -2.144170 -1.411452 1.023940559e-38
0.022238 -2.142885 -1.413906 1.051634981e-38
0.020511 -2.147236 -1.412957 1.023976292e-38
0.017254 -2.150419 -1.400934 9.502918148e-39
0.018045 -2.148886 -1.403534 9.686950675e-39
0.019011 -2.151887 -1.404742 9.134494360e-39
0.018318 -2.153576 -1.402181 9.041941399e-39
0.019521 -2.153440 -1.405362 8.950104502e-39
0.020170 -2.154950 -1.405887 8.765355911e-39
0.019269 -2.150184 -1.407517 9.503276880e-39
0.019519 -2.148308 -1.410382 9.963537564e-39
0.020338 -2.153822 -1.408670 8.766071975e-39
0.034563 -2.155008 -1.390859 7.290599980e-39
0.036523 -2.153862 -1.393062 8.027809089e-39
0.035685 -2.155804 -1.395296 7.382435476e-39
0.032197 -2.160250 -1.399346 7.289878311e-39
0.035767 -2.157223 -1.399224 7.106208720e-39
0.036921 -2.155369 -1.397584 7.382436878e-39
0.034182 -2.159412 -1.401272 7.289879713e-39
0.036326 -2.158309 -1.403426 7.198044217e-39
0.037711 -2.156173 -1.401440 7.290601381e-39
0.026617 -2.139577 -1.413725 1.106952499e-38
0.028805 -2.138906 -1.415624 1.116172622e-38
0.024749 -2.142094 -1.415626 1.051670854e-38
0.021667 -2.145830 -1.414714 1.033231728e-38
0.021042 -2.149872 -1.414180 9.871699266e-39
0.022307 -2.148489 -1.416623 1.014792602e-38
0.023977 -2.144542 -1.417407 1.051634841e-38
0.026213 -2.143468 -1.419531 1.051670854e-38
0.023985 -2.147238 -1.418931 1.033231728e-38
0.025687 -2.145995 -1.421230 1.033231728e-38
0.038678 -2.157244 -1.405531 7.382795610e-39
0.023694 -2.159934 -1.403742 8.580251391e-39
0.025795 -2.161280 -1.402672 8.856482350e-39
0.024570 -2.160096 -1.406560 9.040870807e-39
0.027283 -2.161757 -1.406119 9.224547405e-39
0.021623 -2.156321 -1.409795 8.765354510e-39
0.022267 -2.157942 -1.407036 8.673160281e-39
0.022985 -2.158117 -1.410118 8.857194210e-39
0.027787 -2.161910 -1.407797 9.224547405e-39
0.028340 -2.162067 -1.409627 9.224546004e-39
0.029432 -2.162410 -1.413136 9.408935862e-39
0.031872 -2.161370 -1.403559 7.750496327e-39
0.033247 -2.160305 -1.402255 7.382073941e-39
0.030141 -2.162126 -1.404870 8.395145469e-39
0.032273 -2.162581 -1.411785 8.395504201e-39
0.021749 -2.152790 -1.415474 9.227045920e-39
0.022767 -2.151329 -1.417998 9.779859566e-39
0.023537 -2.154671 -1.419500 8.950819164e-39
0.024189 -2.149997 -1.420390 1.005644786e-38
0.025639 -2.148673 -1.422773 1.024012305e-38
0.024393 -2.152755 -1.421849 9.319601684e-39
0.025624 -2.151362 -1.424304 9.779860967e-39
0.024703 -2.157333 -1.420414 8.581323384e-39
0.026121 -2.159352 -1.420835 8.948675178e-39
0.027704 -2.161352 -1.417289 9.685164019e-39
0.030457 -2.162651 -1.416622 9.500772760e-39
0.031088 -2.162788 -1.418671 9.592965587e-39
0.024933 -2.155342 -1.423448 8.766071975e-39
0.025822 -2.154507 -1.425986 8.766071975e-39
0.026425 -2.157004 -1.427093 8.396932124e-39
0.035382 -2.161113 -1.410084 7.290235642e-39
0.039687 -2.158238 -1.409775 7.474631106e-39
0.041779 -2.157383 -1.411737 7.843416428e-39
0.037387 -2.160464 -1.411850 7.290235642e-39
0.039777 -2.159439 -1.413922 7.290598579e-39
0.040719 -2.158493 -1.412906 7.474632507e-39
0.044044 -2.156319 -1.413851 8.396234278e-39
0.045406 -2.154479 -1.412114 8.765376931e-39
0.032737 -2.162685 -1.413292 8.487338296e-39
0.034690 -2.162298 -1.414264 7.934881982e-39
0.036422 -2.161190 -1.412753 7.290235642e-39
0.033346 -2.162756 -1.415209 8.487697028e-39
0.034360 -2.162955 -1.418889 8.488052958e-39
0.037419 -2.162291 -1.420612 7.935240714e-39
0.038556 -2.161638 -1.419663 7.566819729e-39
0.040115 -2.160455 -1.418198 7.382432674e-39
0.041810 -2.158720 -1.416062 7.474632507e-39
0.031267 -2.137905 -1.417673 1.125320719e-38
0.032461 -2.137337 -1.418800 1.143723972e-38
0.027476 -2.141132 -1.417625 1.079329543e-38
0.029937 -2.140175 -1.419638 1.116136469e-38
0.032400 -2.139174 -1.421687 1.134504269e-38
0.032886 -2.138107 -1.420834 1.143759845e-38
0.033489 -2.136828 -1.419801 1.152943675e-38
0.033368 -2.138603 -1.422777 1.143723972e-38
0.034109 -2.138457 -1.424281 1.152943675e-38
0.028455 -2.142298 -1.421733 1.079329543e-38
0.030953 -2.141407 -1.423690 1.097732936e-38
0.027379 -2.144748 -1.423533 1.042451291e-38
0.029289 -2.144037 -1.425817 1.070109840e-38
0.033243 -2.140351 -1.425795 1.116136609e-38
0.032066 -2.142670 -1.427710 1.088513233e-38
0.034302 -2.141597 -1.429833 1.106952499e-38
0.034925 -2.139333 -1.428003 1.143759565e-38
0.039433 -2.135419 -1.428466 1.208333080e-38
0.041739 -2.135007 -1.430051 1.217552643e-38
0.043477 -2.134353 -1.428795 1.235955615e-38
0.044033 -2.134754 -1.430870 1.235955615e-38
0.035349 -2.140949 -1.431059 1.134575455e-38
0.037007 -2.137979 -1.430276 1.180638377e-38
0.039382 -2.136950 -1.432354 1.208261333e-38
0.040407 -2.135859 -1.431213 1.217480896e-38
0.036184 -2.140411 -1.432074 1.143795298e-38
0.038158 -2.139254 -1.434284 1.180602364e-38
0.040985 -2.136414 -1.433503 1.217480896e-38
0.041827 -2.136469 -1.434707 1.217480896e-38
0.044484 -2.135110 -1.432582 1.235919602e-38
0.040403 -2.138183 -1.436404 1.208225320e-38
0.045841 -2.135707 -1.435842 1.226735912e-38
0.049424 -2.133056 -1.425028 1.355666161e-38
0.052226 -2.133924 -1.424091 1.383253103e-38
0.054402 -2.136830 -1.424628 1.466264483e-38
0.045988 -2.134574 -1.431512 1.254394321e-38
0.047497 -2.134104 -1.430476 1.272833166e-38
0.047926 -2.134430 -1.432093 1.272833166e-38
0.054365 -2.134318 -1.430967 1.364742371e-38
0.055657 -2.135868 -1.431187 1.401692089e-38
0.048494 -2.134946 -1.434316 1.263613603e-38
0.057107 -2.138561 -1.431974 1.447825637e-38
0.027039 -2.147333 -1.425172 1.005537306e-38
0.028735 -2.146088 -1.427473 1.042415418e-38
0.026972 -2.150006 -1.426720 9.687306605e-39
0.028496 -2.148706 -1.429078 9.871339132e-39
0.029665 -2.145539 -1.428522 1.051670854e-38
0.030840 -2.144973 -1.429640 1.060890417e-38
0.033344 -2.143985 -1.431675 1.088549106e-38
0.029520 -2.147974 -1.430436 1.024012165e-38
0.030197 -2.147462 -1.431378 1.042415418e-38
0.032187 -2.146310 -1.433583 1.070110120e-38
0.026947 -2.152691 -1.428255 9.319598881e-39
0.027066 -2.155183 -1.429606 8.674233676e-39
0.028417 -2.151613 -1.430766 9.411437180e-39
0.028358 -2.154049 -1.432177 9.134850290e-39
0.029042 -2.150779 -1.431698 9.687665337e-39
0.029917 -2.150067 -1.432997 9.963533361e-39
0.031523 -2.148793 -1.435328 1.023976292e-38
0.029723 -2.152699 -1.434587 9.503272676e-39
0.031155 -2.151369 -1.436976 9.871337731e-39
0.045723 -2.158670 -1.422071 8.027807688e-39
0.047127 -2.156993 -1.420130 8.673178498e-39
0.047556 -2.158222 -1.423121 8.580622735e-39
0.046484 -2.159821 -1.426207 7.843413626e-39
0.047959 -2.158736 -1.424840 8.488427105e-39
0.035773 -2.142525 -1.433984 1.106952359e-38
0.034505 -2.145263 -1.435679 1.088549246e-38
0.037372 -2.141697 -1.436069 1.134575735e-38
0.039319 -2.140532 -1.438288 1.162199111e-38
0.041419 -2.139416 -1.440456 1.199041630e-38
0.038480 -2.142958 -1.440090 1.116136329e-38
0.040346 -2.141767 -1.442336 1.152943675e-38
