ply
format ascii 1.0
element vertex 1160
property float x
property float y
property float z
property uchar red
property uchar green
property uchar blue
end_header
-14.551308 24.326584 -13.513439 46 52 39
-14.488680 24.319178 -13.483669 53 62 42
-14.489408 24.337912 -13.564871 49 57 41
-14.580170 24.338846 -13.528461 46 52 39
-14.546251 24.379320 -13.591467 50 55 42
-14.396282 24.436590 -13.531199 79 87 53
-15.016340 24.276667 -13.283538 55 64 41
-14.958313 24.300045 -13.321357 59 69 45
-15.038282 24.355404 -13.265896 47 53 42
-15.013763 24.336767 -13.291190 51 57 43
-14.956120 24.364714 -13.268897 45 49 40
-14.904201 24.333443 -13.343941 52 58 43
-14.867290 24.277609 -13.505774 58 71 41
-14.850649 24.313755 -13.454309 72 86 51
-14.812232 24.279568 -13.480846 53 61 39
-14.867372 24.245464 -13.573680 45 50 35
-14.867941 24.262341 -13.537108 52 62 38
-14.838846 24.237291 -13.559415 47 53 35
-14.780790 24.264656 -13.536847 51 57 39
-14.879348 24.361370 -13.492371 74 92 52
-14.914505 24.316452 -13.534542 73 94 48
-14.781675 24.316288 -13.399657 44 50 36
-14.802766 24.355350 -13.438314 48 55 42
-14.769311 24.328213 -13.468338 48 54 40
-14.738997 24.384550 -13.472450 46 52 40
-14.738300 24.313908 -13.524626 53 58 43
-14.691422 24.356998 -13.509488 47 53 40
-14.761591 24.437510 -13.508388 34 34 34
-14.854345 24.224686 -13.637252 43 46 33
-14.808083 24.223330 -13.615865 54 64 39
-14.758959 24.263262 -13.599236 55 63 39
-14.831321 24.212576 -13.697519 46 50 34
-14.784847 24.219965 -13.677321 50 56 37
-14.736983 24.261665 -13.661529 44 49 31
-14.710329 24.303879 -13.582933 54 60 43
-14.684737 24.297197 -13.642823 48 53 37
-14.972290 24.347408 -13.564121 58 64 51
-14.954578 24.366953 -13.549404 56 61 51
-14.936724 24.345661 -13.547574 61 71 49
-14.927934 24.385868 -13.549458 53 55 50
-14.885468 24.382597 -13.529530 61 70 49
-14.888205 24.402620 -13.573772 52 54 49
-15.000391 24.331869 -13.588765 58 67 49
-15.005419 24.421677 -13.539135 69 83 54
-14.944786 24.451683 -13.566848 51 53 48
-14.913260 24.446943 -13.624304 49 51 46
-14.891438 24.420313 -13.610396 50 52 47
-14.814482 24.410009 -13.496132 49 55 42
-14.865425 24.407991 -13.596673 51 53 48
-14.813953 24.420334 -13.574913 51 53 48
-14.765095 24.460642 -13.558461 37 37 36
-14.902740 24.445694 -13.642775 49 51 46
-14.814802 24.436026 -13.613498 50 52 47
-14.768485 24.478128 -13.594073 31 31 32
-14.874137 24.448792 -13.679250 45 47 43
-14.815844 24.452316 -13.653071 45 46 42
-14.771250 24.498619 -13.639452 30 28 30
-14.815346 24.474609 -13.713054 46 46 39
-14.772957 24.517973 -13.685049 38 37 34
-14.694594 24.475685 -13.528383 27 27 28
-14.661987 24.418392 -13.516684 45 50 40
-14.599197 24.365540 -13.544117 45 50 40
-14.620262 24.427645 -13.559872 45 49 40
-14.576267 24.433716 -13.613207 47 50 43
-14.690424 24.464632 -13.524849 30 31 31
-14.637468 24.493141 -13.577377 49 50 44
-14.599617 24.499464 -13.620939 50 51 45
-14.592028 24.493885 -13.629267 50 51 45
-14.632050 24.520868 -13.578970 43 43 40
-14.592310 24.500223 -13.630328 50 51 45
-14.271961 23.856676 -13.466117 80 95 50
-14.317930 23.823343 -13.475807 84 100 50
-14.358349 23.834713 -13.570554 89 108 53
-14.317524 23.839239 -13.552523 83 100 50
-14.268515 23.879333 -13.535969 82 97 51
-14.291468 23.857107 -13.543214 80 95 50
-14.289655 23.869217 -13.580462 81 97 50
-14.288833 23.873262 -13.593552 81 97 50
-14.267606 23.893930 -13.577009 83 99 51
-14.236557 23.896915 -13.446615 77 90 49
-14.240686 23.968801 -13.463786 79 92 47
-14.228599 23.941734 -13.526857 83 98 50
-14.456611 23.862007 -13.546984 87 105 51
-14.407383 23.827402 -13.517294 91 110 55
-14.423097 23.858995 -13.603777 90 107 53
-14.400091 23.846365 -13.591383 90 109 54
-14.492228 23.911551 -13.570575 82 100 47
-14.467039 23.901320 -13.630120 86 104 50
-14.432934 23.898817 -13.686725 91 108 54
-14.391869 23.864763 -13.657276 93 110 55
-14.405655 23.914494 -13.742325 92 109 55
-14.312387 23.855190 -13.609894 83 100 50
-14.266638 23.906010 -13.611621 84 100 51
-14.311535 23.882654 -13.712445 89 107 52
-14.505042 23.948792 -13.654501 83 102 48
-14.551163 23.989231 -13.681566 77 95 44
-14.525629 24.017431 -13.660297 78 93 45
-14.508485 23.974642 -13.589668 80 98 44
-14.489262 24.051523 -13.589787 84 101 48
-14.445827 24.103779 -13.588280 92 111 51
-14.485553 24.061531 -13.627258 85 102 47
-14.476435 23.941523 -13.712923 87 104 51
-14.438419 23.942410 -13.768235 91 107 54
-14.496393 23.972572 -13.799218 92 105 55
-14.265941 24.027325 -13.483953 87 101 54
-14.237309 24.020081 -13.542361 83 96 51
-14.302170 24.076336 -13.507748 97 113 58
-14.268451 24.073503 -13.564473 95 110 58
-14.248453 23.915886 -13.567369 84 99 51
-14.228379 23.946568 -13.563766 83 98 50
-14.246307 23.931934 -13.606119 85 101 51
-14.228511 23.956635 -13.600447 85 100 51
-14.217882 24.004850 -13.603817 83 97 50
-14.226833 23.977219 -13.648832 86 101 50
-14.240974 24.065252 -13.623268 89 103 54
-14.225348 23.986280 -13.677098 86 101 51
-14.220254 24.051146 -13.684298 85 98 51
-14.372759 24.108318 -13.538023 96 112 54
-14.316778 24.112024 -13.592267 99 116 59
-14.401724 24.118799 -13.632167 99 116 55
-14.363745 24.122337 -13.615294 101 118 57
-14.279487 24.112284 -13.647818 101 117 60
-14.245853 24.109371 -13.704578 96 111 57
-14.352478 24.137703 -13.680520 102 118 59
-14.297739 24.144812 -13.733550 100 114 59
-14.260874 23.933044 -13.688862 85 102 51
-14.323191 23.916466 -13.784242 88 106 52
-14.258437 23.953114 -13.759972 85 101 51
-14.265801 23.963095 -13.831363 87 103 51
-14.419025 23.944815 -13.792321 92 108 55
-14.453341 23.977827 -13.852865 93 106 57
-14.418957 23.960865 -13.834625 93 108 57
-14.393201 23.949543 -13.821166 93 109 56
-14.347833 23.956806 -13.874046 93 110 57
-14.310594 23.946766 -13.855516 88 105 53
-14.307434 23.930998 -13.813558 86 103 51
-14.278822 23.946863 -13.816887 85 102 51
-14.290071 23.974813 -13.922831 88 106 54
-14.235047 24.006104 -13.902229 85 102 50
-14.273682 23.978683 -13.915895 86 103 52
-14.272760 23.983328 -13.930857 86 103 52
-14.244617 24.002777 -13.932034 85 103 51
-14.361385 23.993408 -13.958225 91 108 58
-14.309884 23.970594 -13.920155 90 107 55
-14.309618 24.003857 -14.011810 92 109 58
-14.239981 24.015102 -13.978395 85 102 51
-14.219069 24.100521 -13.763603 88 101 53
-14.208928 24.021822 -13.819984 86 102 51
-14.208950 24.057180 -13.752600 88 103 50
-14.215508 24.015123 -13.764393 87 103 50
-14.201284 24.055616 -13.785151 87 101 49
-14.195230 24.054377 -13.811834 86 101 48
-14.207756 24.094296 -13.793799 86 99 51
-14.198133 24.086601 -13.824560 85 98 49
-14.259789 24.145643 -13.788883 97 112 57
-14.228169 24.140985 -13.846309 89 102 52
-14.201000 24.043463 -13.900732 86 102 50
-14.220572 24.023546 -13.924251 87 104 51
-14.210534 24.116060 -13.834569 86 100 51
-14.200203 24.108982 -13.865089 85 99 50
-14.190945 24.073467 -13.863170 86 102 49
-14.189536 24.088518 -13.893497 85 100 49
-14.214582 24.136730 -13.875753 86 100 51
-14.202105 24.131512 -13.905571 85 99 50
-14.191147 24.055443 -13.961959 86 101 51
-14.178419 24.119978 -13.965613 85 98 50
-14.241011 24.027796 -14.053325 88 105 54
-14.227204 24.035599 -14.070799 86 103 52
-14.176865 24.064672 -14.029366 84 100 52
-14.158258 24.105385 -14.026828 83 97 50
-14.202082 24.045630 -14.038116 86 103 52
-14.211042 24.043581 -14.078218 86 103 52
-14.195377 24.050863 -14.072115 85 102 52
-14.169455 24.068905 -14.062894 83 99 52
-14.192855 24.053061 -14.085518 85 102 52
-13.431377 24.350258 -14.238049 48 52 44
-13.467083 24.470787 -14.272113 55 60 49
-14.658203 24.085344 -13.672129 68 88 37
-14.605296 24.124311 -13.699627 72 91 39
-14.553427 24.068104 -13.693260 70 86 41
-14.490696 24.082855 -13.667632 82 99 45
-14.433878 24.111965 -13.645889 95 113 52
-14.571753 24.137985 -13.712857 74 93 40
-14.590594 24.003393 -13.774298 74 91 43
-14.600311 24.030142 -13.711651 70 88 39
-14.543308 23.977365 -13.748817 78 96 44
-14.562053 23.996067 -13.832743 90 101 58
-14.536331 23.987631 -13.819723 92 103 57
-14.502387 24.105339 -13.691240 80 97 44
-14.536410 24.154661 -13.717678 77 95 40
-14.478416 24.181068 -13.749033 96 108 53
-14.447336 24.158604 -13.733322 96 110 51
-14.460605 24.187302 -13.762640 105 112 59
-14.629959 24.140425 -13.667289 72 93 39
-14.598423 24.214542 -13.663736 71 91 36
-14.616789 24.168699 -13.665410 72 94 37
-14.599438 24.165751 -13.694859 75 94 39
-14.565175 24.182821 -13.716433 77 95 40
-14.584734 24.200489 -13.691694 75 94 40
-14.581118 24.220554 -13.692987 75 92 41
-14.622059 24.281519 -13.684404 52 59 34
-14.601765 24.258898 -13.671785 63 76 37
-14.585730 24.256321 -13.701361 67 79 41
-14.563171 24.235100 -13.723199 68 79 44
-14.608154 24.277540 -13.713744 53 60 35
-14.588559 24.271441 -13.740166 58 66 39
-14.684078 24.163969 -13.839345 50 55 41
-14.645117 24.209400 -13.802345 53 59 39
-14.627662 24.195829 -13.819553 55 61 38
-14.680017 24.135050 -13.907193 47 51 36
-14.644182 24.139351 -13.891412 50 55 33
-14.594755 24.178856 -13.874581 52 56 35
-14.516758 24.228251 -13.773525 79 87 49
-14.498556 24.203823 -13.761600 92 102 54
-14.495213 24.230892 -13.800346 78 82 49
-14.610863 24.227083 -13.816454 49 54 37
-14.585097 24.247448 -13.812660 46 50 34
-14.547327 24.221163 -13.859077 53 57 35
-14.431675 24.144110 -13.715569 99 113 53
-14.368449 24.163927 -13.768744 108 117 62
-14.345060 24.154692 -13.756674 108 119 62
-14.423624 24.172335 -13.758955 107 114 59
-14.396173 24.157709 -13.743732 107 118 60
-14.402737 24.182058 -13.785059 106 111 59
-14.448509 24.190962 -13.773090 109 113 63
-14.422677 24.197323 -13.798487 103 104 58
-14.497095 24.394579 -13.633123 52 56 45
-14.442461 24.405167 -13.692907 54 56 48
-14.338809 24.414373 -13.646790 62 66 49
-14.473013 24.211740 -13.786784 101 104 61
-14.448086 24.215509 -13.812796 87 88 50
-14.476752 24.231009 -13.828089 69 73 42
-14.338146 24.452682 -13.749275 50 52 46
-14.417658 23.989878 -13.904818 86 101 53
-14.525993 24.003454 -13.885011 81 85 50
-14.540167 24.041943 -13.950579 54 62 32
-14.490666 24.009853 -13.910958 70 80 42
-14.472003 24.014753 -13.928667 71 82 42
-14.488656 24.030899 -13.949430 63 75 38
-14.527241 24.022583 -13.927126 58 65 34
-14.517131 24.051283 -13.965467 57 67 34
-14.469932 24.060133 -14.017743 64 75 39
-14.436581 24.056980 -14.074591 71 83 44
-14.415615 24.044117 -14.063097 77 91 48
-14.424263 24.025007 -13.986813 80 95 49
-14.379616 24.025957 -14.043941 85 101 54
-14.580326 24.093237 -13.963631 50 57 32
-14.552763 24.100813 -13.989063 51 58 32
-14.608859 24.118979 -13.944834 45 51 31
-14.568443 24.171160 -13.933991 44 50 27
-14.547750 24.171368 -13.997137 47 54 30
-14.518162 24.209450 -13.916591 48 54 28
-14.495906 24.207462 -13.978697 51 58 29
-14.432013 24.226614 -13.952250 57 69 28
-14.514308 24.102081 -14.044230 56 65 35
-14.485559 24.094936 -14.102598 62 72 38
-14.536435 24.171492 -14.064565 49 55 32
-14.539467 24.175501 -14.033030 48 55 31
-14.524064 24.141979 -14.127147 53 60 35
-14.478771 24.215279 -14.043324 55 64 31
-14.344425 24.168201 -13.795841 106 116 61
-14.322044 24.172091 -13.821281 102 114 59
-14.276671 24.179358 -13.874161 99 113 59
-14.373367 24.183838 -13.810213 100 106 55
-14.346829 24.186869 -13.838695 97 108 55
-14.410141 24.199594 -13.812540 95 96 51
-14.399737 24.201178 -13.824840 87 91 46
-14.378066 24.203930 -13.851618 76 86 37
-14.350541 24.206858 -13.880945 82 95 43
-14.332034 24.211769 -13.904280 84 98 46
-14.238422 24.180447 -13.929396 96 110 57
-14.205329 24.177071 -13.986328 93 107 54
-14.288873 24.219202 -13.958197 99 114 60
-14.247313 24.221081 -14.012024 100 114 61
-14.427296 24.217501 -13.839859 71 75 37
-14.411858 24.208807 -13.831511 80 83 41
-14.408644 24.219044 -13.867064 61 70 27
-14.459993 24.229359 -13.856576 61 67 34
-14.448820 24.228004 -13.887560 57 66 29
-14.386389 24.220896 -13.894215 61 73 27
-14.356596 24.221529 -13.916964 69 82 34
-14.425285 24.227379 -13.912981 56 67 27
-14.402558 24.225044 -13.902229 58 69 26
-14.399731 24.229267 -13.937855 60 73 29
-14.345753 24.243284 -13.993938 80 94 43
-14.316490 24.233389 -13.972929 89 103 51
-14.266772 24.220245 -13.984521 100 114 61
-14.291834 24.237156 -14.000195 96 110 57
-14.271769 24.240093 -14.026018 97 112 59
-14.325150 24.250053 -14.015636 85 99 48
-14.296098 24.253788 -14.039171 93 108 55
-14.413011 24.233114 -14.004477 61 73 30
-14.387089 24.234024 -13.964876 67 80 34
-14.404228 24.249453 -14.086120 72 85 40
-14.339170 24.263680 -14.060351 83 96 47
-14.799028 24.208502 -13.754723 46 50 35
-14.761605 24.216585 -13.738771 52 58 38
-14.711550 24.255205 -13.721522 45 49 33
-14.774264 24.197903 -13.814409 46 49 40
-14.730325 24.201897 -13.794872 51 57 39
-14.677326 24.236376 -13.775667 49 54 37
-14.657307 24.287928 -13.701488 44 48 32
-14.626169 24.273438 -13.757685 46 50 35
-14.544612 24.443409 -13.640315 49 53 43
-14.516469 24.453491 -13.661318 52 54 46
-14.461564 24.501095 -13.643167 54 55 49
-14.463434 24.531290 -13.576450 54 55 49
-14.434999 24.520376 -13.633835 54 55 49
-14.471327 24.473244 -13.716131 52 54 46
-14.434728 24.522079 -13.639131 54 55 49
-14.538251 24.536739 -13.634372 48 50 44
-14.493374 24.493460 -13.656614 55 56 50
-14.442943 24.560865 -13.716008 54 55 49
-14.389782 24.424452 -13.731343 51 53 47
-14.411709 24.437210 -13.756124 50 52 46
-14.431120 24.458431 -13.779263 50 52 45
-14.361246 24.498501 -13.799576 51 53 47
-14.474661 24.511990 -13.782415 51 52 47
-14.443760 24.563383 -13.720133 54 55 49
-14.451506 24.508904 -13.823780 51 52 47
-14.423037 24.518700 -13.845879 49 50 45
-14.369057 24.515566 -13.820697 48 50 44
-14.510624 24.547043 -13.744974 51 51 46
-14.549526 24.553598 -13.763754 46 47 42
-14.534613 24.534456 -13.826702 50 51 46
-14.498209 24.533947 -13.882547 51 52 47
-14.450687 24.521362 -13.858933 51 52 47
-14.525318 24.204132 -14.150934 48 53 32
-14.374574 24.541183 -13.871201 46 47 41
-14.337041 24.030798 -14.097746 90 107 58
-14.302792 24.023745 -14.081024 91 108 58
-14.221537 24.047796 -14.119937 85 103 52
-14.359173 24.059950 -14.184758 83 99 54
-14.294084 24.043470 -14.148027 91 109 59
-14.216069 24.067474 -14.198765 86 103 53
-14.314799 24.066349 -14.237968 89 106 58
-14.288780 24.062674 -14.225511 91 109 58
-14.203169 24.080595 -14.261527 83 100 51
-14.453085 24.091021 -14.159742 67 79 41
-14.403778 24.056702 -14.129940 77 91 49
-14.427899 24.072651 -14.145508 71 85 45
-14.403524 24.072603 -14.177412 76 90 49
-14.433964 24.091562 -14.187364 70 83 44
-14.415331 24.091682 -14.215140 73 86 48
-14.399899 24.080648 -14.206451 76 90 49
-14.497681 24.132780 -14.186304 58 67 37
-14.462235 24.131439 -14.242465 63 74 41
-14.397467 24.091526 -14.242344 75 89 49
-14.423804 24.132689 -14.297640 70 82 47
-14.406723 24.132906 -14.322874 72 85 48
-14.387537 24.099415 -14.276139 78 92 51
-14.336713 24.095701 -14.324909 83 100 55
-14.276130 24.076273 -14.288586 90 109 58
-14.386686 24.132797 -14.353248 74 88 49
-14.225266 24.038383 -14.083969 85 103 52
-14.189512 24.057268 -14.106663 85 102 52
-14.163280 24.072979 -14.092255 82 97 51
-14.151744 24.164593 -14.099289 88 102 51
-14.175952 24.171358 -14.039930 88 101 51
-14.214086 24.225866 -14.068043 95 110 56
-14.175636 24.219082 -14.124087 90 104 53
-14.153896 24.090996 -14.167898 77 92 48
-14.134056 24.142647 -14.166403 84 98 51
-14.139392 24.179630 -14.174280 86 100 51
-14.146435 24.106836 -14.232018 80 95 50
-14.149291 24.209850 -14.183256 87 100 52
-14.256893 24.261126 -14.094887 94 108 57
-14.331886 24.286583 -14.128130 83 97 48
-14.266935 24.300772 -14.177905 89 104 53
-14.225767 24.268909 -14.147155 96 111 58
-14.180292 24.263395 -14.205322 94 109 57
-14.150967 24.256748 -14.263507 89 103 54
-14.186897 24.306023 -14.287204 94 110 57
-14.196730 24.097527 -14.343433 84 102 52
-14.295974 24.098949 -14.379320 87 104 57
-14.269367 24.094002 -14.366407 89 107 58
-14.258669 24.108959 -14.423195 89 106 57
-14.185768 24.114750 -14.403754 82 98 51
-14.356108 24.127237 -14.411018 78 92 51
-14.320445 24.126087 -14.467101 81 97 52
-14.179542 24.134756 -14.477849 84 102 52
-14.258102 24.137125 -14.527684 84 101 54
-14.234310 24.149963 -14.576344 86 104 54
-14.169172 24.150040 -14.546523 80 97 50
-14.135843 24.124239 -14.309699 76 90 49
-14.110895 24.189589 -14.307877 80 94 49
-14.126773 24.194004 -14.248814 85 100 50
-14.125773 24.137762 -14.375635 78 93 50
-14.102587 24.201151 -14.342064 79 93 48
-14.104296 24.163704 -14.348610 74 87 48
-14.102024 24.160494 -14.372124 73 86 48
-14.093113 24.202482 -14.374213 77 91 48
-14.124570 24.247562 -14.322659 86 100 52
-14.098545 24.238058 -14.381927 78 91 48
-14.153773 24.302668 -14.344132 90 105 54
-14.122030 24.298120 -14.401511 86 101 52
-14.117447 24.156994 -14.451264 74 89 47
-14.110550 24.172825 -14.513647 77 93 49
-14.067282 24.224781 -14.510842 67 80 44
-14.076450 24.213549 -14.453649 73 87 46
-14.093531 24.290758 -14.459969 81 96 50
-14.069287 24.279705 -14.519833 71 84 44
-14.535110 24.180750 -14.210495 46 51 31
-14.506859 24.173172 -14.269034 52 59 33
-14.525265 24.227692 -14.212885 45 49 31
-14.500387 24.217888 -14.127459 50 57 31
-14.495230 24.231953 -14.162126 50 57 30
-14.468742 24.245298 -14.160110 55 62 32
-14.438208 24.239452 -14.102150 62 72 35
-14.468815 24.230791 -14.114895 56 64 32
-14.428943 24.252123 -14.133324 62 72 36
-14.403001 24.262079 -14.133026 69 80 40
-14.436259 24.266544 -14.177633 61 71 36
-14.403115 24.278780 -14.176486 66 77 39
-14.469408 24.258139 -14.191776 54 61 33
-14.468485 24.287161 -14.268078 53 59 34
-14.406788 24.308403 -14.243075 67 78 39
-14.465663 24.176817 -14.323295 59 68 37
-14.428834 24.178507 -14.375124 66 77 42
-14.467207 24.229719 -14.391016 56 63 35
-14.408814 24.324312 -14.278667 65 76 39
-14.518959 24.244141 -14.284094 45 49 30
-14.494711 24.238281 -14.345631 51 57 33
-14.461433 24.305559 -14.340277 52 59 33
-14.409887 24.342932 -14.324262 65 75 38
-14.469456 24.302296 -14.416063 52 57 31
-14.456609 24.324429 -14.404366 52 57 32
-14.393759 24.372942 -14.391778 64 74 38
-14.336390 24.316841 -14.216537 78 91 44
-14.286540 24.337263 -14.264837 85 99 48
-14.228877 24.305897 -14.224316 92 107 54
-14.250271 24.323353 -14.246182 89 104 51
-14.258640 24.340279 -14.288795 86 101 49
-14.235180 24.326960 -14.270938 90 105 52
-14.233481 24.342085 -14.318512 88 103 51
-14.368105 24.348503 -14.303844 72 84 42
-14.327354 24.344788 -14.284636 79 93 45
-14.289980 24.351566 -14.306780 82 96 47
-14.267891 24.356428 -14.331705 84 98 47
-14.333879 24.360407 -14.324146 76 88 43
-14.294612 24.365913 -14.345337 80 93 45
-14.336920 24.377623 -14.366016 73 86 41
-14.408461 24.358870 -14.370376 64 74 38
-14.372802 24.363245 -14.341476 70 81 41
-14.397219 24.172014 -14.436426 69 80 46
-14.370390 24.163206 -14.495429 72 85 48
-14.430140 24.223886 -14.459126 62 71 40
-14.403704 24.214737 -14.518259 65 75 43
-14.337869 24.159330 -14.552557 76 90 50
-14.295177 24.164272 -14.606323 78 95 51
-14.380208 24.203035 -14.578371 70 82 46
-14.458806 24.279455 -14.480421 51 57 31
-14.434561 24.268406 -14.540278 56 63 35
-14.449932 24.348017 -14.486432 50 55 31
-14.402836 24.395281 -14.482904 62 70 36
-14.456882 24.329479 -14.559476 50 55 31
-14.447393 24.356544 -14.516472 50 55 31
-14.391848 24.241295 -14.661916 67 78 42
-14.401159 24.246340 -14.637228 65 76 41
-14.357758 24.199890 -14.640219 71 84 46
-14.428278 24.292809 -14.680117 57 65 36
-14.413733 24.254393 -14.601272 62 72 39
-14.446967 24.306002 -14.624077 52 57 33
-14.253807 24.376772 -14.400837 83 97 46
-14.228204 24.363209 -14.387116 86 101 49
-14.198103 24.344654 -14.370605 91 107 53
-14.161165 24.344612 -14.426266 94 110 56
-14.127228 24.341963 -14.482925 90 105 55
-14.096295 24.336710 -14.540579 85 99 52
-14.173687 24.382097 -14.510101 88 103 52
-14.137120 24.381729 -14.565892 88 101 52
-14.336504 24.401541 -14.430010 73 85 42
-14.285933 24.392912 -14.417921 77 90 44
-14.260969 24.394747 -14.443049 81 94 45
-14.240654 24.396324 -14.470270 83 97 46
-14.222639 24.383223 -14.452740 85 99 48
-14.289513 24.409555 -14.458970 76 89 42
-14.267986 24.412832 -14.485214 79 92 44
-14.335651 24.434719 -14.519371 71 82 40
-14.224212 24.416466 -14.540646 82 96 46
-14.291365 24.427109 -14.504518 77 89 43
-14.247422 24.414625 -14.512360 81 94 46
-14.274900 24.431015 -14.527351 78 89 44
-14.254170 24.432955 -14.554435 80 92 45
-14.307187 24.443232 -14.543934 74 86 42
-14.288081 24.436895 -14.534252 76 88 43
-14.284647 24.446815 -14.570260 77 88 44
-14.247849 24.446573 -14.626133 79 90 46
-14.218649 24.437721 -14.611459 81 94 47
-14.185598 24.420120 -14.593736 84 97 47
-13.017973 24.275137 -14.037676 49 53 44
-14.443245 24.367926 -14.558879 48 54 30
-14.397009 24.411922 -14.544170 59 67 35
-14.431837 24.386158 -14.641204 46 51 30
-14.381698 24.419701 -14.610892 57 63 34
-14.365348 24.424152 -14.677867 56 62 32
-14.425380 24.401432 -14.700806 44 48 28
-14.325344 24.449459 -14.589457 69 78 40
-14.303494 24.448044 -14.651834 69 78 39
-13.534906 23.887684 -14.697234 44 46 41
-13.763863 23.869547 -14.755222 27 31 23
-13.706296 23.905563 -14.765598 26 31 23
-13.611117 23.988953 -14.732304 35 40 30
-13.686998 24.082035 -14.750835 44 50 37
-13.768192 24.002243 -14.831929 39 48 35
-13.368425 23.804634 -14.417267 43 47 39
-13.201367 24.017616 -14.377968 88 108 64
-13.168386 24.053598 -14.351433 96 118 68
-13.128077 24.097628 -14.318892 97 119 69
-13.217619 24.085611 -14.391619 94 115 66
-13.202644 24.102995 -14.377359 95 117 67
-13.168766 24.149088 -14.330775 91 112 64
-13.243942 24.145819 -14.406625 95 116 68
-13.263253 24.238964 -14.362470 81 98 57
-13.257173 24.254272 -14.339220 75 90 55
-13.296730 24.177870 -14.441408 93 114 65
-13.280176 24.204689 -14.409552 89 109 63
-13.399240 23.881260 -14.550873 57 70 60
-13.311217 23.826466 -14.403468 48 53 45
-13.336646 23.886791 -14.484768 49 59 56
-13.289304 23.921509 -14.449073 53 60 47
-13.338268 23.948931 -14.499380 52 61 48
-13.320745 23.970001 -14.481150 54 63 46
-13.358341 23.925100 -14.519618 49 58 48
-13.459585 23.843658 -14.539669 49 54 44
-13.522240 23.845211 -14.624149 35 36 30
-13.476423 23.871239 -14.623828 44 46 41
-13.425811 23.922632 -14.605366 47 52 48
-13.526817 23.858450 -14.645029 34 35 31
-13.460609 23.973141 -14.628151 49 54 47
-13.358725 24.013393 -14.514206 66 78 52
-13.389318 23.973448 -14.552720 51 59 46
-13.392981 24.063694 -14.538248 81 96 61
-13.426087 24.023655 -14.573175 58 67 48
-13.248486 23.965376 -14.417641 62 73 49
-13.281832 24.014479 -14.445559 75 91 56
-13.241863 24.058619 -14.412271 89 110 63
-13.314908 24.063501 -14.474078 85 103 61
-13.274501 24.107500 -14.441749 90 112 62
-13.349000 24.112850 -14.500380 89 110 62
-13.310957 24.157606 -14.462888 93 114 65
-13.337870 24.316738 -14.262890 47 50 41
-13.309574 24.300835 -14.320187 56 64 46
-13.399767 24.345592 -14.295478 48 51 43
-13.375509 24.334553 -14.355337 49 55 44
-13.395988 24.255047 -14.492792 91 110 64
-13.317214 24.272600 -14.392127 78 94 56
-13.323479 24.256990 -14.415735 81 98 57
-13.367740 24.307013 -14.419355 71 84 53
-13.482666 24.386211 -14.266821 57 63 50
-13.454321 24.378716 -14.325330 51 56 46
-13.492039 24.426374 -14.349756 57 63 50
-13.469039 24.475887 -14.279572 55 59 48
-13.476362 24.407959 -14.412313 50 54 43
-13.429487 24.368458 -14.386286 46 50 40
-13.425200 24.267536 -14.513423 95 114 67
-13.413506 24.286530 -14.490817 88 106 63
-13.445335 24.283007 -14.524225 93 112 67
-13.477808 24.370693 -14.489009 63 73 51
-13.379163 24.283749 -14.457361 83 99 59
-13.406025 24.300196 -14.473148 82 98 59
-13.400820 24.310940 -14.458242 76 90 56
-13.396521 24.324471 -14.436071 68 81 52
-13.433924 24.314972 -14.490919 80 95 59
-13.451681 24.332645 -14.496287 79 93 59
-13.432849 24.346256 -14.457295 60 69 48
-13.518230 24.002094 -14.662206 48 52 43
-13.499390 24.028618 -14.634415 52 56 44
-13.576675 24.025576 -14.690563 47 53 40
-13.540554 24.080235 -14.645272 65 74 50
-13.431289 24.111261 -14.561963 90 110 66
-13.464241 24.074305 -14.590605 75 87 56
-13.478176 24.149321 -14.592904 91 111 65
-13.460942 24.168619 -14.577990 93 114 65
-13.501047 24.124523 -14.610979 86 103 64
-13.492764 23.931122 -14.668703 45 47 43
-13.562273 23.934872 -14.738216 56 70 48
-13.532133 23.982161 -14.683479 47 51 42
-13.652032 24.045712 -14.732652 42 47 36
-13.618037 24.086540 -14.697384 55 63 44
-13.577911 24.130630 -14.664440 77 91 59
-13.654048 24.136505 -14.719500 68 80 52
-13.612136 24.180021 -14.690456 86 105 62
-13.515366 24.197498 -14.617017 94 115 67
-13.497407 24.218727 -14.599104 94 115 66
-13.536236 24.174223 -14.634879 91 111 65
-13.554689 24.243830 -14.641835 92 113 65
-13.535230 24.269272 -14.617264 93 113 65
-13.571042 24.223799 -14.659626 90 111 63
-13.385836 24.163074 -14.520686 92 114 65
-13.353733 24.214661 -14.475453 92 113 64
-13.424414 24.213861 -14.537189 95 116 67
-13.463888 24.264936 -14.551735 95 115 67
-14.159896 24.164715 -14.623225 83 101 53
-14.100258 24.191452 -14.593639 74 90 47
-14.053938 24.251228 -14.581210 67 80 44
-14.050496 24.246456 -14.618471 64 77 43
-13.846210 23.930256 -14.947042 50 57 44
-13.733427 24.147400 -14.781754 53 62 42
-13.850739 24.051762 -14.966971 34 38 30
-13.730490 24.047110 -14.793696 40 48 35
-13.805757 24.060722 -14.871678 28 33 23
-13.765854 24.096865 -14.817218 38 45 33
-13.823579 24.104456 -14.896311 40 44 36
-13.797298 24.145359 -14.849283 46 52 39
-13.753327 24.198847 -14.802234 66 79 51
-13.851120 24.148823 -14.977909 31 38 26
-13.828100 24.186707 -14.897463 51 59 41
-13.790831 24.238655 -14.843589 75 90 55
-13.850148 24.236889 -14.923506 63 76 48
-13.820766 24.286671 -14.878965 80 97 58
-13.867116 24.198412 -14.996023 34 43 30
-14.244219 24.175951 -14.657866 83 101 52
-14.194981 24.186998 -14.708959 84 102 53
-14.149187 24.180567 -14.687040 76 92 51
-14.311535 24.198431 -14.691427 75 91 49
-14.141033 24.198145 -14.763622 82 100 52
-14.247049 24.210535 -14.750748 79 96 49
-14.214104 24.218761 -14.794976 80 97 49
-14.170673 24.224348 -14.848491 83 100 52
-14.131931 24.214928 -14.829364 79 96 51
-14.400667 24.282001 -14.744528 61 70 38
-14.365236 24.235270 -14.716364 70 82 45
-14.386607 24.280081 -14.769743 63 73 39
-14.320415 24.239082 -14.774059 71 85 45
-14.365987 24.279997 -14.800943 64 75 39
-14.273607 24.247593 -14.826465 73 87 45
-14.241379 24.230539 -14.809198 77 93 47
-14.325352 24.283155 -14.855389 66 78 40
-14.283671 24.287224 -14.909482 66 80 39
-14.236823 24.253506 -14.879451 75 91 47
-14.090874 24.204309 -14.655747 74 90 48
-14.045603 24.252920 -14.650233 62 73 41
-14.068193 24.329002 -14.599168 74 86 46
-14.047579 24.314802 -14.660233 68 79 42
-14.103239 24.379030 -14.622571 86 100 53
-14.075703 24.370832 -14.681347 80 94 49
-14.076878 24.217197 -14.731898 68 83 46
-14.038714 24.276979 -14.734174 65 78 43
-14.059074 24.353178 -14.743728 75 89 44
-14.206646 24.450159 -14.680468 80 92 46
-14.147760 24.420853 -14.649107 87 101 50
-14.115155 24.417049 -14.706207 86 101 50
-14.169058 24.450741 -14.735845 79 91 45
-14.091963 24.405087 -14.766418 79 94 46
-14.070493 24.391632 -14.827193 80 95 45
-14.135550 24.447720 -14.792646 79 90 44
-14.103853 24.443132 -14.850040 79 90 43
-14.186218 24.259220 -14.933327 80 97 50
-14.195509 24.299517 -15.016095 76 90 48
-14.131808 24.277561 -14.980710 81 96 51
-14.141003 24.301964 -15.064083 76 91 49
-14.067602 24.231499 -14.804118 72 87 48
-14.126695 24.239805 -14.892152 83 101 52
-14.065216 24.259430 -14.877941 77 94 49
-14.047579 24.299002 -14.875678 80 97 50
-14.045342 24.320702 -14.818596 78 95 47
-14.065591 24.271147 -14.907534 84 101 53
-13.883840 24.294350 -14.949848 80 96 58
-13.853319 24.335522 -14.908628 83 101 58
-13.895539 24.254190 -15.017237 46 57 42
-13.933371 24.328527 -14.970264 89 102 62
-13.891161 24.386070 -14.926725 85 101 59
-14.042602 24.336653 -14.878932 79 96 47
-14.063931 24.286943 -14.953987 86 101 56
-14.019964 24.334126 -14.940784 83 97 55
-14.050854 24.402819 -14.892434 80 96 43
-14.066268 24.443647 -14.905494 81 91 45
-14.031510 24.417536 -14.922037 82 95 47
-14.027367 24.383589 -14.918814 82 95 49
-14.009539 24.424704 -14.939921 86 97 53
-13.995710 24.402821 -14.943980 86 96 55
-14.037408 24.449720 -14.936060 85 95 51
-14.011608 24.458965 -14.955303 92 99 60
-14.060598 24.295021 -15.026239 80 93 52
-13.983514 24.312168 -14.993456 97 104 69
-13.946478 24.298246 -15.047040 66 74 51
-14.033607 24.305548 -15.081059 71 81 45
-13.929311 24.436718 -14.944166 96 108 66
-13.955659 24.483583 -14.987375 85 86 58
-13.475374 24.541088 -14.431425 38 39 34
-13.518392 24.410801 -14.503546 53 59 44
-13.547197 24.364500 -14.579748 75 88 56
-13.512957 24.329741 -14.564432 84 100 61
-13.568881 24.461727 -14.523363 47 54 42
-13.597442 24.398039 -14.615185 62 73 49
-13.586664 24.419554 -14.585865 53 60 43
-13.572692 24.485275 -14.467794 45 52 34
-13.515171 24.535147 -14.448779 33 37 28
-13.477589 24.555441 -14.462369 34 37 31
-13.603452 24.529457 -14.553377 40 47 49
-13.639228 24.443867 -14.637356 49 56 42
-13.626614 24.470779 -14.599377 45 49 43
-13.668436 24.498968 -14.658832 46 47 37
-13.654693 24.518198 -14.638808 47 45 38
-13.618643 24.563597 -14.596963 34 38 35
-13.518335 24.645334 -14.574881 32 29 26
-13.687437 24.185627 -14.747335 79 95 59
-13.645157 24.229025 -14.719096 87 107 61
-13.719290 24.234251 -14.778511 86 105 62
-13.678772 24.278214 -14.746423 89 109 62
-13.600729 24.281506 -14.674864 91 111 64
-13.573709 24.320026 -14.633986 93 112 67
-13.638865 24.329443 -14.698038 89 108 63
-13.750089 24.282200 -14.809795 88 108 62
-13.713437 24.327745 -14.771472 89 109 62
-13.781097 24.335800 -14.834667 88 108 61
-13.750472 24.378038 -14.791348 84 101 58
-13.677564 24.377234 -14.720705 84 101 60
-13.650766 24.421564 -14.667198 59 70 46
-13.716589 24.424913 -14.743117 70 83 50
-13.686094 24.471310 -14.690802 45 51 36
-13.563612 24.336123 -14.615115 88 104 64
-13.591331 24.347666 -14.639988 88 105 64
-13.578840 24.369358 -14.612873 79 93 59
-13.572620 24.380991 -14.597610 71 83 54
-13.611683 24.371099 -14.650773 82 98 61
-13.701242 24.664309 -14.623582 31 34 29
-13.589945 24.745123 -14.619986 24 26 25
-13.758577 24.694143 -14.656212 34 39 31
-13.735305 24.716249 -14.644439 40 47 34
-13.769756 24.652382 -14.727779 28 31 33
-13.774363 24.671818 -14.679714 27 30 27
-13.718395 24.618605 -14.702878 26 29 27
-13.739803 24.724339 -14.652050 39 46 35
-13.799104 24.712166 -14.739129 30 32 29
-13.756774 24.761547 -14.698302 37 39 38
-13.787621 24.428364 -14.810976 76 91 52
-13.863110 24.428329 -14.879489 85 102 58
-13.822761 24.385269 -14.858790 87 106 60
-13.818588 24.476707 -14.844082 63 75 45
-13.742684 24.481060 -14.767054 44 53 33
-13.710619 24.517586 -14.737990 36 44 32
-13.720825 24.538200 -14.761181 31 38 31
-13.772274 24.518810 -14.824652 44 52 35
-13.730730 24.562445 -14.794803 35 44 35
-13.889080 24.477676 -14.903358 85 100 59
-13.870549 24.500843 -14.896855 68 79 49
-13.843618 24.524426 -14.887922 48 55 35
-13.789186 24.557009 -14.873681 40 47 32
-13.738791 24.592794 -14.850025 47 58 34
-13.909895 24.458967 -14.926288 91 106 64
-13.945566 24.462069 -14.961481 100 107 70
-13.923487 24.478876 -14.954248 93 101 68
-13.914999 24.486483 -14.951401 88 96 64
-13.900849 24.506481 -14.943305 70 74 50
-13.926882 24.496708 -14.994637 67 70 48
-13.897107 24.517715 -14.984089 49 50 36
-13.875740 24.510231 -15.045795 43 44 39
-13.741131 24.604189 -14.872833 47 56 33
-13.854351 24.563646 -14.970953 34 31 25
-13.797198 24.595242 -14.949726 37 32 23
-13.778223 24.596846 -15.013862 19 20 15
-13.666479 24.541466 -14.664181 37 38 32
-13.677682 24.563982 -14.689351 30 35 28
-13.663145 24.583979 -14.668900 27 31 26
-13.720734 24.582388 -14.767633 24 31 28
-13.774749 24.696405 -14.809127 34 39 43
-13.750881 24.702692 -14.831728 35 37 37
-13.702730 24.744205 -14.816306 48 48 46
-13.864326 23.995972 -15.064602 47 51 41
-13.890322 24.050945 -15.130156 35 37 36
-13.866459 24.187403 -15.020312 31 38 28
-13.836891 24.085392 -15.110748 33 35 34
-13.857481 24.174694 -15.060717 28 32 25
-13.860640 24.197948 -15.065580 28 32 27
-13.867101 24.246775 -15.075714 27 33 30
-13.875193 24.315496 -15.100106 38 48 49
-14.036698 24.335493 -15.173285 65 76 43
-13.952306 24.338066 -15.124992 60 69 46
-13.963459 24.369368 -15.214434 60 68 46
-13.895771 24.368992 -15.137957 44 52 49
-13.902619 24.395361 -15.186401 46 53 48
-13.864061 24.453602 -15.181496 41 48 53
-13.902748 24.409641 -15.223465 47 53 50
-13.871710 24.484043 -15.112694 47 51 44
-13.834545 24.488342 -15.096304 41 47 49
-13.136307 24.248558 -14.160558 53 59 44
-13.135401 24.221041 -14.228691 77 92 59
-12.983603 24.256105 -14.091730 51 57 45
-12.990214 24.194921 -14.161761 84 100 67
-13.077413 24.259842 -14.062651 55 53 41
-13.051970 24.247862 -14.124794 52 59 45
-13.095191 24.142532 -14.270920 94 116 69
-13.070450 24.199095 -14.203032 86 103 67
-13.156654 24.170540 -14.303595 87 108 63
-13.143437 24.197926 -14.265521 82 100 61
-13.194334 24.247253 -14.256033 72 84 57
-13.273947 24.293839 -14.230248 48 52 41
-13.220440 24.272600 -14.202621 49 53 42
-13.256851 24.276588 -14.292476 66 77 53
-13.212934 24.205822 -14.335714 85 103 61
-12.948788 24.286837 -14.007710 50 53 46
-13.419576 24.516979 -14.267015 35 37 38
-13.464719 24.496780 -14.347443 47 51 41
-13.416632 24.538170 -14.331501 37 39 38
-13.468343 24.514071 -14.381832 45 47 37
-14.437284 24.330673 -14.768451 51 56 32
-14.451428 24.331991 -14.706548 46 50 31
-14.404425 24.319185 -14.824306 57 64 37
-14.470747 24.384890 -14.791193 41 45 30
-14.453748 24.364748 -14.853592 43 48 30
-14.446725 24.402910 -14.783391 42 45 31
-14.413916 24.414625 -14.770086 45 49 31
-14.351545 24.438496 -14.751401 60 66 34
-14.409754 24.421282 -14.800133 46 50 32
-14.347206 24.451942 -14.820629 58 63 35
-14.421708 24.360455 -14.910878 49 57 34
-14.391773 24.360445 -14.955934 53 61 37
-14.382675 24.325102 -14.887806 60 70 37
-14.337597 24.320890 -14.939126 61 72 36
-14.394352 24.321728 -14.853819 58 67 37
-14.459125 24.398518 -14.861015 43 49 34
-14.403357 24.429092 -14.839968 49 54 35
-14.431326 24.388729 -14.919437 46 54 36
-14.388609 24.437660 -14.907064 48 54 36
-14.334046 24.471703 -14.891441 58 62 36
-14.318039 24.499184 -14.955549 58 61 36
-14.386703 24.442137 -14.976825 49 55 39
-14.289885 24.457977 -14.720276 70 79 38
-14.235218 24.473801 -14.769533 74 82 41
-14.193907 24.461552 -14.748814 78 88 43
-14.322194 24.449156 -14.733153 66 73 36
-14.284967 24.465956 -14.754864 70 77 37
-14.318165 24.457632 -14.769468 67 73 36
-14.281595 24.475342 -14.789683 69 75 36
-14.347910 24.445465 -14.780682 61 66 35
-14.313860 24.466747 -14.804514 66 71 36
-14.188396 24.484425 -14.820715 73 79 39
-14.145109 24.487783 -14.875496 69 74 36
-14.272720 24.497557 -14.858675 63 67 34
-14.307006 24.486427 -14.876858 61 65 35
-14.305855 24.492596 -14.896522 61 64 35
-14.275875 24.510689 -14.902458 62 65 34
-14.331518 24.481043 -14.923585 58 61 36
-14.305075 24.498367 -14.914021 60 63 34
-14.292780 24.327675 -14.992189 64 77 38
-14.246283 24.296434 -14.962244 70 84 42
-14.344647 24.363127 -15.021154 58 68 37
-14.304446 24.365910 -15.075744 62 73 37
-14.252804 24.334368 -15.044798 67 81 40
-14.211704 24.333824 -15.101145 73 86 46
-14.172796 24.335485 -15.156162 76 89 51
-14.117983 24.315014 -15.120794 75 88 49
-14.266384 24.366837 -15.131041 65 77 40
-14.244970 24.352867 -15.119180 68 81 42
-14.239108 24.370951 -15.176956 68 80 42
-14.380186 24.412737 -15.044720 49 57 40
-14.349365 24.407387 -15.102410 55 64 38
-14.366957 24.465837 -15.046465 51 58 43
-14.319917 24.508701 -15.031221 57 59 37
-14.356429 24.480345 -15.116367 50 57 41
-14.355659 24.482353 -15.116310 50 57 41
-14.316050 24.404200 -15.159276 60 70 38
-14.277773 24.405313 -15.214501 62 72 39
-14.353222 24.452393 -15.183383 51 59 40
-14.356463 24.480997 -15.117970 50 57 41
-14.322598 24.446873 -15.241138 57 65 38
-14.194497 24.521257 -14.907892 66 68 35
-14.105646 24.489927 -14.930328 68 72 36
-14.061843 24.502756 -14.983027 72 76 42
-14.156472 24.526281 -14.958950 64 66 35
-14.112875 24.532009 -15.012417 65 65 36
-14.007631 24.510763 -15.033686 67 68 41
-13.958720 24.495365 -15.009023 75 76 49
-13.971859 24.509706 -15.089739 63 64 42
-13.941284 24.500154 -15.074332 60 62 41
-14.066764 24.538532 -15.066445 67 67 39
-14.029445 24.540199 -15.120594 68 68 42
-14.272605 24.526278 -14.950477 61 63 35
-14.228884 24.543922 -14.994704 62 63 35
-14.185485 24.537659 -14.973909 63 64 34
-14.177271 24.555134 -15.047032 63 63 34
-14.265303 24.540907 -15.010941 60 61 36
-14.299553 24.532097 -15.097019 57 59 37
-14.253506 24.558052 -15.091596 59 59 37
-14.205227 24.580711 -15.134460 61 60 36
-14.173448 24.579363 -15.119708 63 62 36
-14.126463 24.568579 -15.096604 65 65 38
-14.084178 24.573168 -15.150505 67 66 41
-14.062004 24.560944 -15.138554 68 67 41
-14.163543 24.597469 -15.182984 62 61 36
-14.334328 24.503054 -15.107786 53 57 37
-14.351051 24.502100 -15.189693 50 56 42
-14.309105 24.556520 -15.189349 54 56 38
-14.342914 24.516104 -15.256952 51 57 43
-14.307476 24.579159 -15.253653 53 57 44
-14.252485 24.581512 -15.156221 56 57 37
-14.245352 24.606260 -15.223031 58 58 41
-13.841178 24.751305 -14.775025 51 52 48
-13.838388 24.769176 -14.741398 52 53 49
-13.798170 24.813236 -14.708654 44 45 43
-13.895863 24.816381 -14.737050 47 48 45
-13.888417 24.823637 -14.732897 47 48 45
-13.884934 24.819468 -14.732497 48 49 45
-13.894770 24.785259 -14.804561 51 52 47
-13.697315 24.799427 -14.707583 50 51 49
-13.828863 24.552788 -15.036726 26 26 23
-14.119753 24.344589 -15.211767 73 84 51
-14.186033 24.372358 -15.240235 72 83 47
-14.142106 24.378374 -15.293587 75 85 52
-14.117620 24.370707 -15.281245 73 83 51
-14.109049 24.387680 -15.335991 73 82 51
-14.202184 24.406710 -15.325264 67 76 43
-14.291103 24.442106 -15.298605 61 69 38
-14.243073 24.408422 -15.268314 64 74 40
-14.258804 24.438042 -15.355801 61 69 38
-14.231343 24.421652 -15.340816 64 73 40
-14.162819 24.408768 -15.380130 71 80 47
-14.182377 24.440161 -15.466293 64 71 39
-14.069552 24.360859 -15.257784 67 76 48
-14.031444 24.358511 -15.239985 63 72 45
-13.927559 24.501062 -15.140772 58 60 44
-13.898931 24.496361 -15.199554 49 55 54
-13.991097 24.541374 -15.175797 69 69 48
-13.954226 24.541275 -15.231480 65 67 53
-14.018496 24.379848 -15.303927 60 67 43
-13.955825 24.390490 -15.282644 58 63 45
-14.026577 24.409334 -15.396740 62 68 44
-13.902214 24.424110 -15.263032 50 56 52
-13.884417 24.489305 -15.264462 52 59 60
-13.935810 24.417767 -15.345644 52 56 48
-13.920676 24.538290 -15.288267 61 64 54
-13.891153 24.531813 -15.346387 55 59 57
-14.008305 24.574810 -15.261174 67 66 46
-14.107923 24.600931 -15.238051 65 63 41
-14.050570 24.573826 -15.199669 68 66 43
-14.067831 24.603622 -15.292670 64 62 40
-14.041896 24.591293 -15.278981 66 64 42
-13.971382 24.574749 -15.316847 67 67 51
-13.934120 24.574984 -15.372408 62 63 52
-14.034977 24.611229 -15.345995 64 62 42
-13.985438 24.610914 -15.401191 65 63 46
-14.107773 24.416142 -15.439698 70 76 48
-14.142895 24.442320 -15.521119 69 74 45
-14.098442 24.431683 -15.499197 68 73 45
-14.090563 24.450085 -15.578579 67 71 45
-13.952806 24.440855 -15.440395 58 63 46
-13.896678 24.446283 -15.336779 50 56 53
-13.892429 24.468981 -15.410328 48 53 50
-13.876427 24.512510 -15.409396 50 56 59
-13.890961 24.482672 -15.450677 43 47 45
-14.064047 24.430260 -15.483236 64 69 43
-14.021765 24.432854 -15.464252 61 66 42
-14.004944 24.457438 -15.525809 58 62 42
-13.949893 24.470104 -15.509403 57 61 47
-13.899799 24.572668 -15.428941 56 59 58
-13.890654 24.495806 -15.486050 44 48 45
-13.875337 24.561806 -15.488733 53 57 60
-13.945923 24.613100 -15.456007 63 63 52
-13.910365 24.611858 -15.512131 60 60 50
-13.949536 24.482912 -15.544076 56 60 46
-14.024615 24.471413 -15.616409 60 63 39
-13.949080 24.498278 -15.585763 55 59 46
-14.005836 24.482420 -15.642444 57 60 40
-13.892429 24.524738 -15.556570 49 53 49
-13.886729 24.600279 -15.572197 56 58 54
-14.326389 24.491938 -15.322088 55 62 41
-14.304335 24.478991 -15.382669 57 65 38
-14.330007 24.531134 -15.329505 53 59 46
-14.300432 24.596169 -15.323864 51 56 41
-14.273986 24.473230 -15.440516 59 65 37
-14.222394 24.438341 -15.411238 61 68 36
-14.237788 24.472542 -15.496428 57 63 34
-14.215693 24.458273 -15.484213 59 65 35
-14.309126 24.523176 -15.463950 55 61 39
-14.283991 24.512897 -15.523520 56 62 37
-14.323424 24.548265 -15.398849 51 56 39
-14.292410 24.616596 -15.397430 47 52 38
-14.314133 24.587059 -15.475631 47 53 38
-14.311604 24.582714 -15.546426 51 57 39
-14.315507 24.583075 -15.509604 49 54 39
-14.288215 24.635426 -15.459504 49 55 42
-14.279953 24.662951 -15.556690 48 53 40
-14.162903 24.623091 -15.279706 60 58 35
-14.256736 24.629402 -15.313120 54 56 42
-14.193278 24.655693 -15.357776 54 52 33
-14.157528 24.644924 -15.339820 58 55 34
-14.126886 24.632845 -15.324011 62 59 38
-14.082779 24.639013 -15.377309 62 58 38
-14.154127 24.671556 -15.408785 58 54 34
-14.096292 24.675638 -15.461472 59 54 34
-14.244157 24.657753 -15.381380 45 47 35
-14.240799 24.677404 -15.443080 44 47 35
-14.209759 24.689754 -15.442920 51 50 34
-14.157217 24.704023 -15.492908 56 51 32
-14.163832 24.472519 -15.607738 64 67 40
-14.252104 24.508471 -15.580856 56 61 33
-14.206424 24.474159 -15.550842 58 63 34
-14.208462 24.501736 -15.632471 54 58 31
-14.121921 24.476784 -15.661762 64 66 41
-14.081364 24.466295 -15.641646 63 65 41
-14.199938 24.507586 -15.661208 54 57 30
-14.178288 24.508326 -15.692213 55 57 30
-14.137617 24.511518 -15.746641 55 57 31
-14.074213 24.489225 -15.711581 58 60 36
-14.289390 24.556564 -15.605000 55 59 38
-14.259502 24.550404 -15.662999 54 58 33
-14.300678 24.617731 -15.619160 47 52 39
-14.226080 24.547310 -15.719830 50 53 26
-14.199590 24.523579 -15.704210 53 55 28
-14.233782 24.588991 -15.802067 49 51 25
-14.197571 24.549404 -15.774983 48 49 23
-14.037638 24.644228 -15.432051 60 56 37
-13.997256 24.649019 -15.484795 63 59 41
-13.958358 24.650673 -15.539815 63 61 47
-14.067628 24.660286 -15.446089 59 54 35
-14.039131 24.661957 -15.477793 60 55 36
-14.074858 24.678185 -15.488329 58 53 34
-14.054460 24.679834 -15.515522 58 52 34
-14.036043 24.671015 -15.505791 59 54 36
-14.032992 24.681875 -15.543499 58 53 35
-14.001946 24.492928 -15.681773 56 59 41
-13.944981 24.520704 -15.656986 56 59 46
-13.924314 24.648117 -15.596439 61 59 50
-13.902655 24.567791 -15.638559 56 58 52
-13.904922 24.632860 -15.657901 58 58 50
-13.971324 24.687771 -15.623797 60 56 42
-13.937012 24.685452 -15.680326 60 57 45
-14.231665 24.704601 -15.542046 48 51 39
-14.189020 24.724018 -15.583640 51 49 32
-14.146069 24.716763 -15.562904 55 50 31
-14.116173 24.706751 -15.547740 56 50 31
-14.076896 24.708731 -15.602635 54 48 31
-14.021376 24.688072 -15.574173 57 52 35
-14.138565 24.735472 -15.635028 52 46 28
-14.025901 24.715916 -15.658529 54 48 33
-13.987405 24.722179 -15.708803 54 50 36
-14.087595 24.747810 -15.685869 49 43 26
-14.034279 24.747866 -15.734045 48 43 29
-14.273682 24.678211 -15.615683 47 50 36
-14.285822 24.612925 -15.680005 50 55 38
-14.258557 24.686251 -15.682530 45 49 34
-14.263069 24.607599 -15.745630 50 55 36
-14.252707 24.637924 -15.817925 48 52 35
-14.248977 24.690899 -15.745555 47 50 32
-14.233604 24.709782 -15.819736 47 51 34
-14.223370 24.716469 -15.598263 48 51 38
-14.211370 24.728909 -15.667188 46 48 34
-14.208325 24.739431 -15.704000 46 47 33
-14.205295 24.749680 -15.740049 46 49 40
-14.195679 24.770374 -15.823420 44 50 43
-14.149519 24.813034 -15.804977 47 48 40
-14.147516 24.777182 -15.717000 48 43 26
-14.097227 24.787811 -15.768745 45 40 24
-14.082822 24.514853 -15.794626 53 54 32
-14.068581 24.522402 -15.827465 52 54 35
-14.153430 24.546158 -15.831564 49 49 26
-14.112472 24.549597 -15.885902 50 50 28
-14.198155 24.576468 -15.856501 46 47 22
-14.181789 24.582140 -15.906448 46 46 22
-14.064114 24.559320 -15.937954 47 48 34
-14.129457 24.583225 -15.971215 48 48 27
-14.065866 24.591900 -16.033829 47 46 28
-13.996025 24.511576 -15.768848 54 55 38
-13.939511 24.543453 -15.733196 55 59 50
-13.935886 24.555349 -15.775360 54 57 50
-14.055208 24.530342 -15.856848 52 53 38
-13.983856 24.526119 -15.823549 52 54 43
-13.932730 24.563232 -15.805588 52 56 51
-13.912170 24.600172 -15.724187 56 58 49
-13.912119 24.674961 -15.739976 56 55 46
-13.900736 24.627262 -15.800346 54 56 51
-13.895845 24.656998 -15.802475 54 55 50
-13.980074 24.552965 -15.897357 51 54 50
-13.925020 24.581705 -15.877363 50 55 54
-13.920605 24.588850 -15.909452 49 55 57
-13.890491 24.635649 -15.864491 50 54 54
-13.948133 24.724157 -15.763699 55 51 41
-13.913248 24.722330 -15.820045 53 51 42
-14.022903 24.755455 -15.767013 46 41 27
-13.959589 24.762581 -15.847183 49 46 38
-13.985922 24.584627 -15.991352 47 48 38
-13.915462 24.597580 -15.947911 48 54 60
-13.885206 24.714571 -15.878654 51 50 44
-13.872417 24.646063 -15.935323 47 53 60
-13.864570 24.700390 -15.939712 47 49 48
-13.919565 24.765211 -15.901831 50 47 41
-13.886744 24.761593 -15.958860 47 46 44
-14.043861 24.606861 -16.080671 42 40 26
-13.978028 24.605877 -16.050377 44 44 35
-13.906881 24.644142 -16.096001 44 48 53
-13.862347 24.750673 -16.018673 46 47 52
-14.216071 24.620625 -15.943788 47 49 30
-14.244574 24.640629 -15.880449 46 50 34
-14.234280 24.671232 -15.959564 46 49 34
-14.144068 24.618908 -16.055744 47 46 27
-14.185749 24.620857 -15.999895 46 45 25
-14.193875 24.659330 -16.077267 45 44 25
-14.212452 24.738665 -15.959476 46 47 31
-14.218937 24.667723 -16.024097 45 47 31
-14.207567 24.757446 -16.031034 45 45 28
-14.201453 24.781832 -16.105968 44 44 29
-14.220272 24.727503 -15.890686 46 48 29
-14.059525 24.788427 -15.824160 42 37 23
-14.012218 24.762762 -15.798721 44 40 26
-14.018620 24.793203 -15.878133 40 36 24
-14.113947 24.821657 -15.853968 45 44 32
-14.076954 24.821659 -15.909616 44 40 26
-13.971839 24.800308 -15.930931 42 39 31
-13.929886 24.804611 -15.984941 43 41 37
-14.025414 24.824646 -15.959044 40 35 23
-13.985802 24.836544 -16.015244 38 34 28
-14.188597 24.784824 -15.882742 44 51 43
-14.143411 24.830296 -15.868731 46 52 53
-14.179053 24.804039 -15.962012 44 49 38
-14.134241 24.848219 -15.943483 47 52 50
-14.173519 24.822250 -16.026522 45 48 38
-14.126006 24.865284 -16.013149 46 48 42
-14.164968 24.841206 -16.098999 43 43 27
-14.073729 24.846811 -15.984427 44 38 25
-14.040394 24.845463 -16.005255 41 36 23
-14.017725 24.833223 -15.986654 38 34 22
-14.017459 24.849920 -16.031254 38 33 21
-14.073586 24.860420 -16.021000 46 39 25
-14.047223 24.863710 -16.047363 43 37 24
-14.102684 24.871880 -16.037666 47 42 27
-14.076492 24.876810 -16.062695 46 40 24
-14.122633 24.874363 -16.047169 46 46 37
-14.118407 24.884678 -16.081879 46 43 30
-14.102983 24.622456 -16.110039 48 46 28
-14.121779 24.654505 -16.195942 49 45 26
-14.053931 24.633410 -16.161310 42 39 24
-14.055653 24.664974 -16.257940 48 44 28
-14.202662 24.696865 -16.166626 44 44 29
-14.218782 24.708530 -16.117683 44 45 30
-14.169033 24.661741 -16.146063 46 44 25
-14.172575 24.690834 -16.224623 46 43 28
-14.215281 24.721565 -16.176035 44 45 33
-14.217735 24.764223 -16.183428 44 45 33
-14.198743 24.794611 -16.147690 43 42 27
-14.202888 24.736080 -16.245077 44 43 29
-14.134455 24.691860 -16.279829 49 44 25
-14.091633 24.696917 -16.333551 52 46 27
-14.174517 24.737553 -16.304892 46 41 23
-14.139889 24.735504 -16.361324 48 42 23
-13.972103 24.630684 -16.119820 40 39 30
-13.893702 24.803909 -16.040859 43 42 43
-13.863953 24.797634 -16.098896 41 41 44
-13.940882 24.843418 -16.068272 38 37 35
-13.975269 24.657541 -16.216032 38 35 25
-14.033852 24.680195 -16.304632 40 36 23
-13.967335 24.678789 -16.273962 38 36 31
-13.843218 24.783539 -16.159920 40 41 47
-13.896842 24.848104 -16.124607 38 37 39
-13.849590 24.810940 -16.166864 39 40 46
-14.013677 24.876110 -16.099653 38 35 29
-14.062384 24.898920 -16.132072 44 38 24
-14.018568 24.911489 -16.183624 37 33 26
-13.900486 24.885590 -16.212799 36 37 45
-13.924566 24.922195 -16.290144 36 36 42
-13.882745 24.890429 -16.266323 36 38 48
-14.526621 24.884970 -16.202702 103 121 85
-14.471816 24.835070 -16.237614 103 108 88
-14.469493 24.921198 -16.200573 105 116 91
-14.415690 24.870070 -16.229229 95 99 90
-14.196669 24.804420 -16.179688 43 43 31
-14.197470 24.798079 -16.324297 45 43 29
-14.174366 24.786037 -16.384539 46 41 22
-14.186357 24.848549 -16.326626 44 43 33
