ply
format ascii 1.0
element vertex 1221
property float x
property float y
property float z
property uchar red
property uchar green
property uchar blue
end_header
-0.523146 -3.210344 -1.146523 45 69 23
-0.521024 -3.210778 -1.146268 44 67 22
-0.518808 -3.209833 -1.149075 43 67 21
-0.515184 -3.207112 -1.149937 43 66 19
-0.498971 -3.224847 -1.140256 47 67 22
-0.499190 -3.232009 -1.142061 47 66 22
-0.521964 -3.210114 -1.147732 44 68 23
-0.521176 -3.246397 -1.110661 63 68 42
-0.520547 -3.251169 -1.110545 59 62 40
-0.518606 -3.249788 -1.114218 58 63 38
-0.514848 -3.257364 -1.116428 64 70 41
-0.515978 -3.252327 -1.117340 61 68 39
-0.517469 -3.247796 -1.118968 63 72 39
-0.518065 -3.245372 -1.121644 70 82 43
-0.516105 -3.239860 -1.129392 58 76 33
-0.513221 -3.247585 -1.126035 66 80 38
-0.519311 -3.266912 -1.111593 95 88 58
-0.500572 -3.247666 -1.124828 73 83 42
-0.509582 -3.245265 -1.127128 64 80 35
-0.504045 -3.247206 -1.124692 71 84 40
-0.497626 -3.238457 -1.140690 50 69 25
-0.494707 -3.240053 -1.143481 48 67 24
-0.492027 -3.241721 -1.146156 47 66 23
-0.494647 -3.263140 -1.126234 65 74 37
-0.500053 -3.272632 -1.122992 57 65 38
-0.515828 -3.242554 -1.131064 56 76 33
-0.492644 -3.238922 -1.146645 47 66 23
-0.528284 -3.236561 -1.157678 43 66 23
-0.524379 -3.237329 -1.157279 43 67 23
-0.525351 -3.234251 -1.158316 43 67 23
-0.518383 -3.243775 -1.162707 43 67 23
-0.530237 -3.249597 -1.163618 44 66 22
-0.526067 -3.250595 -1.162801 44 67 23
-0.516847 -3.241618 -1.167951 44 69 25
-0.513728 -3.249086 -1.170186 47 69 26
-0.515042 -3.246916 -1.172339 48 70 27
-0.475012 -3.211436 -1.139837 49 67 26
-0.481399 -3.220424 -1.138161 59 76 36
-0.469963 -3.211529 -1.143861 46 66 25
-0.469294 -3.212003 -1.144561 45 65 25
-0.465159 -3.217367 -1.150232 40 60 21
-0.474161 -3.234385 -1.145101 56 76 31
-0.463553 -3.224948 -1.151721 42 61 21
-0.464530 -3.220827 -1.152558 39 59 19
-0.467680 -3.234780 -1.146373 53 72 29
-0.464033 -3.223638 -1.154439 38 58 18
-0.469557 -3.211146 -1.144837 45 66 24
-0.478487 -3.205609 -1.154049 43 62 20
-0.490716 -3.200125 -1.162058 44 63 26
-0.488154 -3.201373 -1.160162 43 62 25
-0.492001 -3.206679 -1.164846 45 66 25
-0.488703 -3.208255 -1.162473 46 67 26
-0.484616 -3.202869 -1.158045 43 61 22
-0.486014 -3.209436 -1.160767 46 67 26
-0.469989 -3.220877 -1.158536 38 59 19
-0.466723 -3.222262 -1.156573 38 58 18
-0.499935 -3.223880 -1.159666 45 65 24
-0.494825 -3.220115 -1.160921 45 67 22
-0.486939 -3.224446 -1.162711 46 69 23
-0.496477 -3.222347 -1.164175 47 68 26
-0.484865 -3.233697 -1.146139 49 69 23
-0.483167 -3.238695 -1.150270 48 69 23
-0.477653 -3.239660 -1.149971 57 77 32
-0.478576 -3.246227 -1.152853 52 74 27
-0.472261 -3.240874 -1.149085 57 77 31
-0.468320 -3.241585 -1.148822 55 75 30
-0.461549 -3.241341 -1.151594 55 73 32
-0.472631 -3.247320 -1.152412 55 76 30
-0.469574 -3.247871 -1.152211 57 77 31
-0.480136 -3.265582 -1.145046 66 83 40
-0.480899 -3.262025 -1.145631 66 84 39
-0.464765 -3.256260 -1.152983 62 83 37
-0.477147 -3.263626 -1.150328 57 77 31
-0.469763 -3.255060 -1.153969 60 81 34
-0.460321 -3.239469 -1.156110 50 69 28
-0.459732 -3.245803 -1.160001 51 71 28
-0.452534 -3.258330 -1.153997 58 78 34
-0.454709 -3.254261 -1.158448 54 72 30
-0.458724 -3.249629 -1.162778 50 70 27
-0.457852 -3.251985 -1.164652 50 70 27
-0.486228 -3.238377 -1.149960 46 67 20
-0.494572 -3.233114 -1.158764 46 70 24
-0.491469 -3.233937 -1.157981 46 69 22
-0.492489 -3.226994 -1.158325 46 69 23
-0.485326 -3.233160 -1.161714 45 69 21
-0.485963 -3.228581 -1.161880 45 68 21
-0.493154 -3.235915 -1.161241 46 70 24
-0.491000 -3.239097 -1.164410 45 69 24
-0.486029 -3.239913 -1.164258 47 70 25
-0.483627 -3.231826 -1.165203 46 69 22
-0.473522 -3.238546 -1.171386 47 68 26
-0.479904 -3.231030 -1.168181 47 69 25
-0.487930 -3.241670 -1.167840 46 68 24
-0.475467 -3.239779 -1.174938 48 68 26
-0.478986 -3.236284 -1.180221 50 71 29
-0.468786 -3.239945 -1.169878 47 68 25
-0.464137 -3.245429 -1.185468 51 71 29
-0.462053 -3.248498 -1.188529 51 72 30
-0.470171 -3.231753 -1.192990 46 66 26
-0.554560 -3.197252 -1.147301 41 65 13
-0.548130 -3.198410 -1.146879 38 63 13
-0.560802 -3.194525 -1.151231 41 65 13
-0.558013 -3.196019 -1.148869 41 65 13
-0.555002 -3.203707 -1.150586 39 64 13
-0.548850 -3.205148 -1.149451 38 64 13
-0.562600 -3.201139 -1.153717 40 64 12
-0.559220 -3.202344 -1.152186 39 64 12
-0.527878 -3.201035 -1.147796 35 51 18
-0.517691 -3.192932 -1.151357 41 60 16
-0.525899 -3.199301 -1.152258 41 60 23
-0.524949 -3.204661 -1.151716 38 57 16
-0.518891 -3.204866 -1.155789 38 58 15
-0.536807 -3.191701 -1.165347 47 62 26
-0.518371 -3.188092 -1.165879 48 66 30
-0.518810 -3.189584 -1.175935 45 64 28
-0.514933 -3.190649 -1.174877 46 64 28
-0.516020 -3.183517 -1.175299 41 60 23
-0.535332 -3.210057 -1.156114 46 62 21
-0.532865 -3.210967 -1.159552 44 61 19
-0.529972 -3.215801 -1.163422 46 62 21
-0.531235 -3.209477 -1.163363 43 60 18
-0.531659 -3.207364 -1.167864 45 60 22
-0.534970 -3.204292 -1.173517 50 62 28
-0.530405 -3.210157 -1.179747 56 66 35
-0.567810 -3.187985 -1.163280 49 67 17
-0.569767 -3.185810 -1.169102 56 70 21
-0.576291 -3.198768 -1.172012 66 76 30
-0.572854 -3.199865 -1.174865 68 77 33
-0.537076 -3.189833 -1.169363 46 62 26
-0.538228 -3.185361 -1.170427 45 61 25
-0.536412 -3.188193 -1.173181 43 61 23
-0.541790 -3.182150 -1.175839 45 64 25
-0.533512 -3.186871 -1.177042 43 62 22
-0.536290 -3.183933 -1.181176 45 64 25
-0.532675 -3.188929 -1.176031 42 61 21
-0.530663 -3.187517 -1.176564 41 60 20
-0.524259 -3.188729 -1.176015 43 64 24
-0.542687 -3.174809 -1.190225 79 80 42
-0.540156 -3.184881 -1.187937 57 66 33
-0.541607 -3.187362 -1.190899 71 74 42
-0.535467 -3.181159 -1.188941 59 64 25
-0.539379 -3.178158 -1.194241 86 79 44
-0.537420 -3.180279 -1.196695 91 81 46
-0.532191 -3.202686 -1.177960 46 58 27
-0.526703 -3.203319 -1.178381 47 61 29
-0.530014 -3.192569 -1.200894 78 72 38
-0.530730 -3.200601 -1.203718 95 83 50
-0.533569 -3.235524 -1.158210 45 65 24
-0.538363 -3.234285 -1.159349 45 66 24
-0.543318 -3.244213 -1.171125 42 62 18
-0.550422 -3.239301 -1.173282 44 60 23
-0.548530 -3.241364 -1.175660 46 60 25
-0.547135 -3.238728 -1.181909 44 63 19
-0.547861 -3.235865 -1.182571 44 64 17
-0.535920 -3.226185 -1.160338 54 68 29
-0.534930 -3.230557 -1.159530 50 67 27
-0.528601 -3.228963 -1.162783 53 68 29
-0.525240 -3.232741 -1.167070 51 68 27
-0.532135 -3.210248 -1.179275 59 68 38
-0.532070 -3.226621 -1.178255 80 81 53
-0.531385 -3.225413 -1.181135 83 83 56
-0.524246 -3.210784 -1.180404 49 63 27
-0.518354 -3.217142 -1.185991 54 67 31
-0.519562 -3.223467 -1.189309 56 70 31
-0.533267 -3.233165 -1.181095 90 87 63
-0.532476 -3.231837 -1.184273 82 83 55
-0.531664 -3.236037 -1.183733 80 83 54
-0.541014 -3.237932 -1.185676 46 65 21
-0.541640 -3.234988 -1.186151 45 65 19
-0.534023 -3.237875 -1.188110 56 71 29
-0.535304 -3.233349 -1.189383 54 69 27
-0.526536 -3.230888 -1.188317 71 79 44
-0.520263 -3.230221 -1.191851 59 72 35
-0.525082 -3.239468 -1.187562 55 70 29
-0.525651 -3.236546 -1.187944 59 72 33
-0.518851 -3.238766 -1.191159 57 72 34
-0.519358 -3.235192 -1.191306 56 71 34
-0.560789 -3.213935 -1.171501 43 65 14
-0.557940 -3.216339 -1.174694 44 65 16
-0.556587 -3.214658 -1.178832 51 68 21
-0.558154 -3.210001 -1.180564 57 71 25
-0.554400 -3.223859 -1.176954 44 65 15
-0.555447 -3.218906 -1.177744 45 66 17
-0.548800 -3.229970 -1.182987 46 65 17
-0.545730 -3.210678 -1.188241 65 75 35
-0.538872 -3.219071 -1.192592 66 76 35
-0.530032 -3.207250 -1.203862 90 81 44
-0.542599 -3.229242 -1.186632 49 67 20
-0.536527 -3.228406 -1.190472 61 73 32
-0.537883 -3.223590 -1.191815 57 71 27
-0.538517 -3.222878 -1.219559 105 87 55
-0.536974 -3.223414 -1.218893 105 85 51
-0.537337 -3.220253 -1.218878 107 89 57
-0.500753 -3.194383 -1.171356 43 54 24
-0.496169 -3.203708 -1.169995 46 64 25
-0.507408 -3.191704 -1.175042 40 56 25
-0.505547 -3.192619 -1.173647 41 55 25
-0.506181 -3.188019 -1.173804 40 57 22
-0.509655 -3.184224 -1.178951 40 61 19
-0.507403 -3.196300 -1.178310 43 58 27
-0.492662 -3.212627 -1.169173 45 67 25
-0.494649 -3.209099 -1.173973 46 65 25
-0.495371 -3.206556 -1.181611 48 64 27
-0.493122 -3.209081 -1.184479 46 62 25
-0.475064 -3.195134 -1.178181 56 75 28
-0.475241 -3.198049 -1.180538 50 70 23
-0.469284 -3.198928 -1.184918 41 63 18
-0.479054 -3.196507 -1.186711 44 64 19
-0.465817 -3.186811 -1.199511 57 71 26
-0.478781 -3.181381 -1.197552 70 79 36
-0.463536 -3.186112 -1.201243 61 71 29
-0.462112 -3.194898 -1.200579 54 71 23
-0.479627 -3.187009 -1.200114 83 85 46
-0.467430 -3.186885 -1.208016 86 85 46
-0.470132 -3.201432 -1.201190 48 70 16
-0.472097 -3.204338 -1.205110 63 76 29
-0.469468 -3.200448 -1.214193 101 95 58
-0.516936 -3.201650 -1.202874 55 64 30
-0.512397 -3.202880 -1.201671 52 64 29
-0.513725 -3.197998 -1.202951 52 63 27
-0.525393 -3.192780 -1.201957 70 70 35
-0.522621 -3.192430 -1.203337 69 72 36
-0.526133 -3.189965 -1.208021 74 73 42
-0.524778 -3.199322 -1.205398 82 77 42
-0.484951 -3.181915 -1.193816 75 81 39
-0.481998 -3.185253 -1.197593 84 86 47
-0.487931 -3.188893 -1.205248 105 97 64
-0.491591 -3.185862 -1.210697 112 100 70
-0.486970 -3.182045 -1.211604 113 101 70
-0.474888 -3.182689 -1.219855 122 105 76
-0.511158 -3.209910 -1.186642 44 63 24
-0.511796 -3.216717 -1.189088 45 64 23
-0.494748 -3.209424 -1.193124 44 57 31
-0.491572 -3.212376 -1.196833 43 57 29
-0.498267 -3.208869 -1.193180 47 61 31
-0.500292 -3.214501 -1.197750 46 62 27
-0.493286 -3.214456 -1.200162 46 61 29
-0.500481 -3.221690 -1.199507 45 63 25
-0.498874 -3.219254 -1.205387 46 62 26
-0.496060 -3.215322 -1.205049 46 61 27
-0.507776 -3.237169 -1.200673 51 65 26
-0.494725 -3.227933 -1.205303 47 65 26
-0.497097 -3.222223 -1.208192 47 63 26
-0.494199 -3.235727 -1.205967 45 64 22
-0.494394 -3.231156 -1.205385 47 64 24
-0.501178 -3.236459 -1.203988 46 62 20
-0.481955 -3.215814 -1.195503 43 55 29
-0.479306 -3.217472 -1.198151 45 57 29
-0.471315 -3.228455 -1.194275 47 64 27
-0.473078 -3.224177 -1.196415 48 63 27
-0.476674 -3.221191 -1.201930 45 58 27
-0.469339 -3.226164 -1.199958 48 62 27
-0.474630 -3.223325 -1.204447 45 60 26
-0.489217 -3.215176 -1.199922 45 57 28
-0.484083 -3.216272 -1.199211 43 54 28
-0.486537 -3.219392 -1.204007 46 60 29
-0.484602 -3.221036 -1.206182 47 61 28
-0.478443 -3.222417 -1.205183 46 58 26
-0.467529 -3.227775 -1.202033 47 62 27
-0.464122 -3.231953 -1.206572 47 63 28
-0.471343 -3.226238 -1.208208 45 63 25
-0.481070 -3.223534 -1.209872 46 58 25
-0.495344 -3.225242 -1.211008 49 66 27
-0.473511 -3.227361 -1.226448 74 71 32
-0.508267 -3.210495 -1.203918 51 63 26
-0.502873 -3.212315 -1.201699 47 61 25
-0.504975 -3.207209 -1.204251 50 62 26
-0.513417 -3.214042 -1.212034 70 75 44
-0.518051 -3.212787 -1.213262 103 96 61
-0.506978 -3.207232 -1.221990 76 79 50
-0.511820 -3.207352 -1.227787 104 102 68
-0.503773 -3.222772 -1.213651 48 62 29
-0.498808 -3.224474 -1.211551 47 64 27
-0.501704 -3.225970 -1.216773 58 68 33
-0.519859 -3.218603 -1.217498 101 84 48
-0.522277 -3.224429 -1.221512 104 78 40
-0.521313 -3.221581 -1.220566 105 80 44
-0.528930 -3.224247 -1.219717 104 77 40
-0.530912 -3.218023 -1.221841 104 80 45
-0.515035 -3.220326 -1.223973 127 115 83
-0.511842 -3.223202 -1.227651 129 117 85
-0.493204 -3.214656 -1.216065 58 68 31
-0.501314 -3.199292 -1.230814 84 84 56
-0.495665 -3.200480 -1.230068 85 84 56
-0.504393 -3.209519 -1.224945 79 79 54
-0.501873 -3.205761 -1.234029 79 81 52
-0.497484 -3.206287 -1.234322 82 83 54
-0.490121 -3.201437 -1.229797 81 81 53
-0.486656 -3.202131 -1.229415 85 83 55
-0.488217 -3.203951 -1.232433 82 82 54
-0.484922 -3.207228 -1.236400 85 84 55
-0.490234 -3.206448 -1.236361 84 84 56
-0.499488 -3.228671 -1.219716 59 68 35
-0.501633 -3.212187 -1.228225 95 92 65
-0.498271 -3.215202 -1.232091 79 85 52
-0.505131 -3.208547 -1.233442 96 94 64
-0.500972 -3.212058 -1.238104 76 83 48
-0.499165 -3.209367 -1.237795 68 77 44
-0.511828 -3.219488 -1.235081 121 111 82
-0.506222 -3.219079 -1.238559 95 91 65
-0.482188 -3.208641 -1.237453 83 83 54
-0.493026 -3.209037 -1.241624 74 80 49
-0.491866 -3.210987 -1.243461 71 79 47
-0.484917 -3.212319 -1.242827 77 81 51
-0.491278 -3.217321 -1.247351 65 75 42
-0.486624 -3.218221 -1.246909 68 76 44
-0.526200 -3.289101 -1.113410 62 63 43
-0.520312 -3.288108 -1.117534 63 67 44
-0.513030 -3.280948 -1.118053 63 70 45
-0.482712 -3.276728 -1.137324 62 72 36
-0.528082 -3.252427 -1.166593 46 67 24
-0.525201 -3.255407 -1.170125 49 69 27
-0.521181 -3.256101 -1.169927 49 69 27
-0.522733 -3.257357 -1.172817 50 70 29
-0.514566 -3.255725 -1.172937 49 68 27
-0.514197 -3.254113 -1.176599 55 72 32
-0.516787 -3.258312 -1.177231 52 71 31
-0.480840 -3.274419 -1.143013 69 84 42
-0.479617 -3.273370 -1.145721 67 83 41
-0.479495 -3.288169 -1.148473 71 83 42
-0.477223 -3.286799 -1.152230 71 87 43
-0.474476 -3.286530 -1.153944 72 90 44
-0.474445 -3.293815 -1.155347 69 83 42
-0.471180 -3.286088 -1.155785 67 85 40
-0.468158 -3.285613 -1.157351 62 80 35
-0.448644 -3.270631 -1.161955 56 78 32
-0.455155 -3.264474 -1.173327 50 71 27
-0.455351 -3.267711 -1.174991 52 73 28
-0.455535 -3.270922 -1.176648 54 76 29
-0.446893 -3.285884 -1.164248 63 85 37
-0.446444 -3.283178 -1.170338 56 79 32
-0.448969 -3.286417 -1.179999 54 77 31
-0.451039 -3.282991 -1.185046 57 80 33
-0.456135 -3.258745 -1.203189 53 74 31
-0.451282 -3.296862 -1.173904 59 82 32
-0.446114 -3.295946 -1.177621 57 80 31
-0.445171 -3.302745 -1.180607 59 82 33
-0.445844 -3.298804 -1.179379 57 80 31
-0.449506 -3.296255 -1.185093 54 76 29
-0.449037 -3.299231 -1.187047 53 75 28
-0.449163 -3.292782 -1.183562 54 78 30
-0.445555 -3.289752 -1.191406 56 80 33
-0.446563 -3.282901 -1.189623 58 82 35
-0.530562 -3.254135 -1.171150 47 68 25
-0.529112 -3.258809 -1.178970 48 68 26
-0.525570 -3.259731 -1.178114 50 69 29
-0.521351 -3.249977 -1.183320 57 72 32
-0.523050 -3.246154 -1.185444 55 70 30
-0.520565 -3.247939 -1.188056 62 76 37
-0.518757 -3.259522 -1.180821 53 71 32
-0.519780 -3.251311 -1.180917 68 78 43
-0.518036 -3.257506 -1.185487 60 74 38
-0.516342 -3.255588 -1.190259 66 76 40
-0.517506 -3.249784 -1.191076 77 84 51
-0.518294 -3.246586 -1.191776 73 81 46
-0.533593 -3.246865 -1.189177 42 64 16
-0.527525 -3.244747 -1.192769 42 64 16
-0.527144 -3.252418 -1.193655 41 63 17
-0.527344 -3.247816 -1.193076 41 63 15
-0.527378 -3.261354 -1.181512 47 68 26
-0.526990 -3.259896 -1.194889 43 64 19
-0.539872 -3.229441 -1.222306 109 97 68
-0.537911 -3.229968 -1.221797 109 96 66
-0.540058 -3.235866 -1.225741 116 104 73
-0.539440 -3.236020 -1.225606 116 104 73
-0.539822 -3.236791 -1.226408 117 104 73
-0.510750 -3.254344 -1.194835 64 74 40
-0.511392 -3.249619 -1.194980 75 81 50
-0.504910 -3.253311 -1.199030 54 68 32
-0.505364 -3.250030 -1.199146 65 75 41
-0.512970 -3.237767 -1.195292 57 70 33
-0.512136 -3.245822 -1.195486 73 80 48
-0.510416 -3.236880 -1.198084 52 67 28
-0.506495 -3.244620 -1.199987 68 77 43
-0.517199 -3.248882 -1.204702 53 68 25
-0.500948 -3.243339 -1.204631 59 69 33
-0.494475 -3.250189 -1.209328 51 66 26
-0.512821 -3.266271 -1.203405 41 62 16
-0.515472 -3.257692 -1.203530 45 64 19
-0.516198 -3.254690 -1.204164 47 65 20
-0.498641 -3.259422 -1.218256 52 66 24
-0.488242 -3.242141 -1.211453 44 63 19
-0.488223 -3.249505 -1.212895 46 62 19
-0.487676 -3.255948 -1.213253 45 61 19
-0.481642 -3.255526 -1.217242 45 54 20
-0.479096 -3.255866 -1.219542 44 55 21
-0.475763 -3.262795 -1.223031 41 52 20
-0.496200 -3.260820 -1.220625 53 67 25
-0.476324 -3.256358 -1.222699 46 59 25
-0.480098 -3.249061 -1.234156 83 85 55
-0.479629 -3.255409 -1.237976 109 102 67
-0.476564 -3.256135 -1.237392 100 97 63
-0.509729 -3.225541 -1.230327 120 111 78
-0.508825 -3.246442 -1.232970 102 78 44
-0.496582 -3.232406 -1.223683 84 85 54
-0.494919 -3.234537 -1.225949 87 86 57
-0.502712 -3.231992 -1.228966 122 112 80
-0.498491 -3.233458 -1.227138 115 108 76
-0.500971 -3.234699 -1.231602 119 98 66
-0.498690 -3.237922 -1.234876 102 73 39
-0.506771 -3.229008 -1.234179 117 109 77
-0.507412 -3.225901 -1.240790 36 41 28
-0.507271 -3.222788 -1.239927 59 60 42
-0.504930 -3.225330 -1.242864 33 41 24
-0.501454 -3.224602 -1.244733 39 49 26
-0.504678 -3.232448 -1.237451 112 88 57
-0.502982 -3.234966 -1.239953 96 66 33
-0.502793 -3.246823 -1.237123 104 72 37
-0.488721 -3.246614 -1.236684 118 102 71
-0.485100 -3.247537 -1.235852 114 107 75
-0.488352 -3.253501 -1.239288 110 93 60
-0.511862 -3.268099 -1.199474 40 63 16
-0.483248 -3.277131 -1.224292 52 67 24
-0.470022 -3.276374 -1.230318 53 67 24
-0.493192 -3.263682 -1.224175 62 73 32
-0.491077 -3.266620 -1.227184 67 75 35
-0.485384 -3.275591 -1.227293 63 73 32
-0.488145 -3.270621 -1.231314 82 84 46
-0.486089 -3.272437 -1.233663 88 88 51
-0.470872 -3.283973 -1.230957 54 63 23
-0.469377 -3.284268 -1.230802 53 64 24
-0.469435 -3.280987 -1.230243 52 65 24
-0.470007 -3.284792 -1.231976 55 64 24
-0.482755 -3.275271 -1.237411 98 93 58
-0.465654 -3.189733 -1.210753 103 94 59
-0.461817 -3.192743 -1.205409 61 73 29
-0.466871 -3.196280 -1.213582 109 99 64
-0.449303 -3.220345 -1.219347 46 70 14
-0.444226 -3.221500 -1.218486 45 68 17
-0.451857 -3.210781 -1.221902 83 85 47
-0.448398 -3.208720 -1.223022 91 88 52
-0.455068 -3.207697 -1.227615 92 88 55
-0.451919 -3.205236 -1.228310 100 92 61
-0.446520 -3.223142 -1.222714 54 73 23
-0.471796 -3.228875 -1.228407 73 70 31
-0.433299 -3.216203 -1.227513 95 93 56
-0.431033 -3.218195 -1.230096 99 94 59
-0.435032 -3.205340 -1.239402 109 98 69
-0.432828 -3.214945 -1.236642 115 103 72
-0.433920 -3.212289 -1.242115 90 88 55
-0.434432 -3.210436 -1.242615 89 86 54
-0.434097 -3.211633 -1.243497 84 84 50
-0.424420 -3.227448 -1.229271 73 79 39
-0.428108 -3.222183 -1.234215 113 102 70
-0.425377 -3.230926 -1.231322 62 72 31
-0.429182 -3.229329 -1.237469 71 77 39
-0.426498 -3.224065 -1.236309 117 104 74
-0.431584 -3.218396 -1.239366 119 105 76
-0.443528 -3.219821 -1.241867 80 82 49
-0.436973 -3.218374 -1.245349 72 77 42
-0.434192 -3.219407 -1.244000 89 87 54
-0.435256 -3.215918 -1.245112 75 78 44
-0.432497 -3.224476 -1.242134 87 85 52
-0.430772 -3.221107 -1.241396 119 105 75
-0.470128 -3.215352 -1.241047 70 77 41
-0.466610 -3.215867 -1.241077 68 76 38
-0.480863 -3.213154 -1.242332 81 83 54
-0.475217 -3.214556 -1.241116 81 82 53
-0.443877 -3.279849 -1.198725 64 86 41
-0.456895 -3.256550 -1.205875 51 71 29
-0.444200 -3.277571 -1.200997 64 86 41
-0.446021 -3.273357 -1.203249 61 83 39
-0.451902 -3.258661 -1.210306 51 71 29
-0.443167 -3.254661 -1.223318 51 67 31
-0.441778 -3.258399 -1.226294 52 68 33
-0.437158 -3.267720 -1.224955 55 73 33
-0.442796 -3.288632 -1.194776 60 84 37
-0.441232 -3.287434 -1.197924 63 86 40
-0.440696 -3.284924 -1.203613 67 88 44
-0.440162 -3.293621 -1.198678 62 85 39
-0.436815 -3.292543 -1.205768 68 89 44
-0.438197 -3.288735 -1.207356 68 89 45
-0.436431 -3.290825 -1.209667 68 90 45
-0.437764 -3.304282 -1.196756 55 78 31
-0.432668 -3.305772 -1.201365 60 82 35
-0.433778 -3.302464 -1.202590 63 85 39
-0.435432 -3.297250 -1.204358 68 89 43
-0.432930 -3.294205 -1.213826 66 87 43
-0.430292 -3.296506 -1.216823 66 87 42
-0.427526 -3.298768 -1.219883 64 85 40
-0.439484 -3.282934 -1.208382 65 86 42
-0.433219 -3.277213 -1.224642 55 76 34
-0.435509 -3.271138 -1.227925 55 74 34
-0.434178 -3.273772 -1.230253 55 74 33
-0.435550 -3.270472 -1.237047 53 69 32
-0.433913 -3.274126 -1.240140 54 70 33
-0.432942 -3.276568 -1.242126 54 70 33
-0.419891 -3.298048 -1.235419 54 76 30
-0.422585 -3.294856 -1.239982 54 75 29
-0.366910 -3.246780 -1.249749 76 81 40
-0.363682 -3.249730 -1.253492 80 84 43
-0.360502 -3.250050 -1.253841 77 82 41
-0.352593 -3.250769 -1.254870 76 83 42
-0.381973 -3.239056 -1.245149 81 85 47
-0.378180 -3.241571 -1.249020 103 96 62
-0.375024 -3.242361 -1.248328 94 91 54
-0.369026 -3.243956 -1.246804 71 78 37
-0.376594 -3.243785 -1.251281 104 97 62
-0.374926 -3.247592 -1.254479 103 97 61
-0.368793 -3.249007 -1.253395 89 89 50
-0.383065 -3.245088 -1.257292 118 105 73
-0.379302 -3.246085 -1.256344 113 102 69
-0.361513 -3.251383 -1.255825 87 88 49
-0.356043 -3.255271 -1.261451 99 96 59
-0.356027 -3.255402 -1.261634 99 96 59
-0.381500 -3.250845 -1.261502 118 106 73
-0.382254 -3.254531 -1.263049 116 105 72
-0.363986 -3.254446 -1.260641 109 101 67
-0.366542 -3.257937 -1.265684 117 105 73
-0.363518 -3.259056 -1.268280 116 105 73
-0.359899 -3.259276 -1.268990 115 105 72
-0.367393 -3.258908 -1.267325 118 105 74
-0.452159 -3.247063 -1.222754 48 66 29
-0.448447 -3.249319 -1.226428 50 66 31
-0.468104 -3.231899 -1.232493 74 70 32
-0.464744 -3.234448 -1.236100 62 69 33
-0.462640 -3.236060 -1.238367 58 69 32
-0.446765 -3.251692 -1.228840 53 67 34
-0.445555 -3.255381 -1.231674 55 69 36
-0.471316 -3.257892 -1.235265 64 69 39
-0.451088 -3.255512 -1.247166 74 72 36
-0.454376 -3.252438 -1.252833 85 75 36
-0.439749 -3.244313 -1.257894 89 87 55
-0.439508 -3.244295 -1.258013 88 87 55
-0.439514 -3.244259 -1.258017 88 87 55
-0.472861 -3.230647 -1.240329 68 76 42
-0.471918 -3.228369 -1.247083 63 75 36
-0.476014 -3.230708 -1.245701 72 79 46
-0.456219 -3.249448 -1.258790 76 71 33
-0.464314 -3.275229 -1.234717 60 72 32
-0.459571 -3.273266 -1.240592 66 73 35
-0.459849 -3.271326 -1.240677 64 70 34
-0.459171 -3.272731 -1.241898 68 72 35
-0.466615 -3.270146 -1.245120 96 87 50
-0.460328 -3.272624 -1.241751 71 75 38
-0.470771 -3.269759 -1.244598 90 82 43
-0.449687 -3.260707 -1.250957 82 77 41
-0.455357 -3.258956 -1.255800 98 90 54
-0.451916 -3.260441 -1.253675 89 82 45
-0.452713 -3.267115 -1.256363 113 102 70
-0.463377 -3.281198 -1.234318 58 70 31
-0.462768 -3.283052 -1.235697 60 70 32
-0.458881 -3.281199 -1.241005 68 75 38
-0.461779 -3.284168 -1.246525 85 81 45
-0.457676 -3.278959 -1.246322 81 82 46
-0.462776 -3.277899 -1.246966 91 85 49
-0.438792 -3.267392 -1.242741 53 64 30
-0.437514 -3.271174 -1.245670 57 66 30
-0.436782 -3.273559 -1.247469 57 67 30
-0.441406 -3.271381 -1.252002 78 70 37
-0.449642 -3.268149 -1.255106 101 91 58
-0.433875 -3.259890 -1.260837 69 78 38
-0.430507 -3.260635 -1.260313 67 76 36
-0.424026 -3.267493 -1.264997 55 73 21
-0.425523 -3.281554 -1.268643 75 67 34
-0.446837 -3.270760 -1.267902 75 78 47
-0.442223 -3.271388 -1.268046 56 64 32
-0.442252 -3.264059 -1.267189 62 73 33
-0.449705 -3.271555 -1.266468 99 94 65
-0.432500 -3.280991 -1.267771 62 62 36
-0.456645 -3.250301 -1.259685 77 73 35
-0.470713 -3.253840 -1.261969 123 112 83
-0.466746 -3.250079 -1.262480 106 99 73
-0.417406 -3.268004 -1.266061 54 73 20
-0.546230 -3.171471 -1.195580 88 85 56
-0.535480 -3.173243 -1.206321 50 49 29
-0.527558 -3.166625 -1.205862 56 58 23
-0.530527 -3.171458 -1.211874 76 62 28
-0.529739 -3.170100 -1.215115 73 64 31
-0.532098 -3.177475 -1.215749 81 63 30
-0.531587 -3.176721 -1.217572 73 63 28
-0.528151 -3.189534 -1.225780 77 79 47
-0.528395 -3.187963 -1.225881 80 82 49
-0.408768 -3.308444 -1.232921 60 80 37
-0.410249 -3.305362 -1.234823 57 78 35
-0.400677 -3.316665 -1.235144 62 85 40
-0.401357 -3.313626 -1.235690 60 82 38
-0.399908 -3.324665 -1.235435 65 87 42
-0.425085 -3.296427 -1.258253 68 74 39
-0.385101 -3.323205 -1.261133 56 76 34
-0.402075 -3.305100 -1.249536 59 80 38
-0.405746 -3.302609 -1.255277 61 80 39
-0.402326 -3.305502 -1.259113 60 77 37
-0.400389 -3.307484 -1.261476 59 75 36
-0.403709 -3.315009 -1.272990 65 69 38
-0.396136 -3.316959 -1.270713 57 66 33
-0.407029 -3.311939 -1.278639 66 69 42
-0.381758 -3.308965 -1.293506 49 64 27
-0.392215 -3.339897 -1.239735 68 90 45
-0.391438 -3.347903 -1.240015 70 92 46
-0.391770 -3.344184 -1.239835 69 92 46
-0.377469 -3.334447 -1.256569 58 77 35
-0.379563 -3.330686 -1.259375 55 74 32
-0.383157 -3.327690 -1.264886 55 75 33
-0.378135 -3.341674 -1.258085 59 80 37
-0.390807 -3.355786 -1.240519 72 93 47
-0.379285 -3.360934 -1.250623 68 90 43
-0.370694 -3.334206 -1.259334 59 77 36
-0.373262 -3.331433 -1.263906 54 73 32
-0.380133 -3.329024 -1.267600 56 74 35
-0.375461 -3.330167 -1.266630 55 73 34
-0.379803 -3.338850 -1.263737 56 77 33
-0.374173 -3.335342 -1.265475 55 75 34
-0.383572 -3.335831 -1.269122 52 72 31
-0.375292 -3.354587 -1.265879 59 81 36
-0.383804 -3.342262 -1.272529 51 70 29
-0.378026 -3.351447 -1.271872 52 74 30
-0.405310 -3.331466 -1.271536 86 82 44
-0.401977 -3.332995 -1.269277 68 72 32
-0.387884 -3.326474 -1.270641 53 69 32
-0.385494 -3.327649 -1.268849 54 71 33
-0.395358 -3.325274 -1.270811 56 69 33
-0.396284 -3.320691 -1.271469 56 68 34
-0.386090 -3.334492 -1.271231 52 69 30
-0.406010 -3.317976 -1.273129 77 78 46
-0.416846 -3.319144 -1.277340 112 104 70
-0.415905 -3.316386 -1.275300 107 100 67
-0.409651 -3.315292 -1.278781 86 84 54
-0.409233 -3.328466 -1.276829 111 96 61
-0.395036 -3.340462 -1.272776 70 72 35
-0.393174 -3.346306 -1.278163 82 79 42
-0.404248 -3.344147 -1.279249 101 92 59
-0.396358 -3.343219 -1.283891 103 89 54
-0.392862 -3.338444 -1.283533 93 83 49
-0.407975 -3.331054 -1.279084 112 95 61
-0.405509 -3.334431 -1.282565 115 90 55
-0.403781 -3.332834 -1.286641 116 86 50
-0.396334 -3.333274 -1.288401 102 80 47
-0.401602 -3.342028 -1.284775 104 92 59
-0.402557 -3.335521 -1.285097 113 88 53
-0.384132 -3.324189 -1.294502 46 60 22
-0.377072 -3.309494 -1.293892 46 59 26
-0.379396 -3.324955 -1.294383 43 60 20
-0.375250 -3.325733 -1.294043 41 54 20
-0.386547 -3.336943 -1.286828 83 76 45
-0.380523 -3.337376 -1.291005 70 62 34
-0.371037 -3.341687 -1.290072 75 66 35
-0.388445 -3.333864 -1.289439 89 74 44
-0.391552 -3.332362 -1.290540 94 73 43
-0.382253 -3.333129 -1.293097 66 63 32
-0.383389 -3.329530 -1.294306 59 63 28
-0.431282 -3.283832 -1.266267 76 71 43
-0.412886 -3.289957 -1.272161 53 61 28
-0.409264 -3.290082 -1.273081 49 61 25
-0.416214 -3.290517 -1.270651 58 60 31
-0.401829 -3.283052 -1.273367 34 40 18
-0.395882 -3.289457 -1.278869 48 67 24
-0.402969 -3.296782 -1.278050 51 68 25
-0.396560 -3.296230 -1.281377 47 67 23
-0.397350 -3.302910 -1.284054 52 69 25
-0.403954 -3.310643 -1.282498 48 56 28
-0.384347 -3.287267 -1.287484 51 73 26
-0.384500 -3.283092 -1.286910 51 73 26
-0.384857 -3.279487 -1.286795 51 73 26
-0.384783 -3.310262 -1.292823 50 66 28
-0.411782 -3.317341 -1.282812 98 92 60
-0.360665 -3.366229 -1.263022 67 87 43
-0.373392 -3.357062 -1.268491 58 80 35
-0.358813 -3.362059 -1.272958 58 78 35
-0.361541 -3.359359 -1.277506 58 81 37
-0.376822 -3.356894 -1.275674 51 73 28
-0.371519 -3.358205 -1.279865 53 73 31
-0.383397 -3.361423 -1.283403 65 71 32
-0.380624 -3.362534 -1.281878 57 69 29
-0.373927 -3.362226 -1.284763 54 69 28
-0.357354 -3.364340 -1.285591 57 70 35
-0.359200 -3.357174 -1.287378 58 70 37
-0.356550 -3.370574 -1.285955 56 71 33
-0.375062 -3.375961 -1.289439 62 67 29
-0.362559 -3.367244 -1.295102 74 74 42
-0.364089 -3.362890 -1.296831 66 67 38
-0.369102 -3.375030 -1.293452 74 76 40
-0.367662 -3.372378 -1.299749 93 82 51
-0.364940 -3.368558 -1.299413 84 76 45
-0.396252 -3.348197 -1.276825 79 76 39
-0.397732 -3.352655 -1.280322 84 79 43
-0.397456 -3.349751 -1.286790 109 96 64
-0.406769 -3.347385 -1.288912 109 97 69
-0.403949 -3.344789 -1.289317 108 96 67
-0.402404 -3.346872 -1.291480 109 97 69
-0.404517 -3.346907 -1.290705 109 98 70
-0.404749 -3.350111 -1.291741 108 96 69
-0.380890 -3.354970 -1.280795 55 69 27
-0.388117 -3.358517 -1.288227 101 89 56
-0.385259 -3.355287 -1.288306 101 90 56
-0.379144 -3.355114 -1.292207 92 85 52
-0.386520 -3.357540 -1.290900 107 93 60
-0.380664 -3.356520 -1.295072 108 90 56
-0.376394 -3.357138 -1.295124 85 73 46
-0.387705 -3.364872 -1.292014 105 94 61
-0.388317 -3.363365 -1.295120 110 98 66
-0.387081 -3.370436 -1.295502 107 93 61
-0.383456 -3.368850 -1.302285 106 89 58
-0.373710 -3.359478 -1.298173 81 63 38
-0.370549 -3.362853 -1.302107 95 68 40
-0.364850 -3.365303 -1.298609 79 73 42
-0.376642 -3.361294 -1.303521 99 69 41
-0.371622 -3.369383 -1.305021 96 73 45
-0.376970 -3.368365 -1.305491 101 75 46
-0.382078 -3.374647 -1.301102 111 92 58
-0.375838 -3.373641 -1.304623 108 87 57
-0.859343 -3.206208 -2.065208 51 59 38
-0.337266 -3.265431 -1.260410 72 79 37
-0.336567 -3.266269 -1.261330 73 80 39
-0.345511 -3.258136 -1.258635 80 85 44
-0.346704 -3.258254 -1.259787 84 87 47
-0.338627 -3.265335 -1.262703 82 85 45
-0.350744 -3.260768 -1.268057 113 103 70
-0.350471 -3.260982 -1.268354 114 104 71
-0.342045 -3.264124 -1.266081 101 95 60
-0.360774 -3.260075 -1.270637 115 105 72
-0.359898 -3.362120 -1.289626 56 67 34
-0.339773 -3.381933 -1.287968 59 78 41
-0.341929 -3.379529 -1.291970 59 77 40
-0.351980 -3.376664 -1.293333 62 66 33
-0.349586 -3.377175 -1.295180 62 65 33
-0.344000 -3.378352 -1.294437 60 71 38
-0.360791 -3.368628 -1.292645 71 74 41
-0.362252 -3.365339 -1.299387 77 74 43
-0.356783 -3.366156 -1.299396 72 71 42
-0.355446 -3.372818 -1.298457 79 71 38
-0.349123 -3.373608 -1.302196 88 70 37
-0.346031 -3.377602 -1.297740 63 65 34
-0.325923 -3.397377 -1.310504 86 67 35
-0.319781 -3.396518 -1.314222 93 72 39
-0.818893 -3.149910 -2.061943 90 86 49
-0.826148 -3.211032 -2.066172 68 81 49
-0.827976 -3.206714 -2.068416 73 87 50
-0.819986 -3.210272 -2.069875 77 93 48
-0.821790 -3.206069 -2.072101 77 94 48
-0.815547 -3.205051 -2.075617 67 86 39
-0.807681 -3.208734 -2.077312 65 84 38
-0.809502 -3.205345 -2.079730 65 85 38
-0.825198 -3.198876 -2.076456 71 88 42
-0.827981 -3.193435 -2.080098 68 85 40
-0.820081 -3.196862 -2.081685 64 85 38
-0.821956 -3.193864 -2.084272 64 86 38
-0.818491 -3.194685 -2.086991 65 86 39
-0.818696 -3.199085 -2.079775 65 85 38
-0.816092 -3.195368 -2.088936 65 87 39
-0.806454 -3.206595 -2.082414 66 86 39
-0.810560 -3.199072 -2.094602 69 89 42
-0.812685 -3.230439 -2.061498 66 80 47
-0.805699 -3.231090 -2.064084 75 91 51
-0.806910 -3.228322 -2.065590 77 93 51
-0.799340 -3.230496 -2.067486 72 91 46
-0.800674 -3.227345 -2.069124 70 90 44
-0.811273 -3.250082 -2.055749 63 76 46
-0.806148 -3.251386 -2.054577 68 83 49
-0.816064 -3.248966 -2.056618 54 64 40
-0.803899 -3.235203 -2.061848 73 88 51
-0.797763 -3.234891 -2.065685 75 93 49
-0.792714 -3.230129 -2.070479 65 84 39
-0.794460 -3.226516 -2.072725 64 83 37
-0.787074 -3.228926 -2.074982 62 81 36
-0.787308 -3.227103 -2.077724 62 82 36
-0.790493 -3.239358 -2.068550 70 91 45
-0.791487 -3.233649 -2.069099 67 87 42
-0.784168 -3.238735 -2.072005 66 85 40
-0.785231 -3.232535 -2.072571 63 83 38
-0.783622 -3.247044 -2.072738 70 92 46
-0.778392 -3.237648 -2.076298 66 86 40
-0.779519 -3.235050 -2.077695 65 86 40
-0.775072 -3.235523 -2.082874 71 92 46
-0.776931 -3.231431 -2.086901 70 90 44
-0.780069 -3.225401 -2.091030 71 92 45
-0.825036 -3.214063 -2.064888 67 80 48
-0.818829 -3.213282 -2.068511 76 93 49
-0.806394 -3.211577 -2.075693 65 85 38
-0.803798 -3.207909 -2.084877 68 88 41
-0.798183 -3.211061 -2.090291 70 89 43
-0.794974 -3.211647 -2.092712 70 89 43
-0.781959 -3.221297 -2.093422 71 93 45
-0.783048 -3.218307 -2.094674 71 93 45
-0.791812 -3.211144 -2.095071 71 90 44
-0.773514 -3.176587 -2.106363 62 76 44
-0.769409 -3.177247 -2.106269 59 73 43
-0.771105 -3.203835 -2.100138 73 94 50
-0.772234 -3.200474 -2.101386 73 93 50
-0.764832 -3.203168 -2.103673 72 91 49
-0.765914 -3.198936 -2.104665 70 89 48
-0.758146 -3.202852 -2.106575 70 86 51
-0.783667 -3.191826 -2.104760 69 88 45
-0.784610 -3.188472 -2.105691 68 87 45
-0.767100 -3.193899 -2.105675 71 90 50
-0.731287 -3.186985 -2.115067 31 37 26
-0.741185 -3.206555 -2.107144 60 73 47
-0.730201 -3.194073 -2.114638 36 45 31
-0.760196 -3.242468 -2.089323 78 102 56
-0.761736 -3.238278 -2.091102 78 102 56
-0.755288 -3.235889 -2.093993 80 104 60
-0.749017 -3.234681 -2.097422 78 99 59
-0.773907 -3.224915 -2.094787 74 96 49
-0.757117 -3.231748 -2.096275 79 102 59
-0.758300 -3.229015 -2.097738 78 100 58
-0.750614 -3.231277 -2.099455 75 95 57
-0.752039 -3.227877 -2.101199 73 93 55
-0.728630 -3.223625 -2.105905 57 70 44
-0.721560 -3.224618 -2.106059 59 72 45
-0.722694 -3.221600 -2.107382 54 65 43
-0.744284 -3.212607 -2.107331 67 81 53
-0.740450 -3.213229 -2.107230 62 76 51
-0.748019 -3.218630 -2.106846 70 87 51
-0.722487 -3.233233 -2.104439 58 72 45
-0.719377 -3.233815 -2.104187 59 73 45
-0.719983 -3.230474 -2.104548 61 75 47
-0.775320 -3.220941 -2.096395 73 95 48
-0.756574 -3.211531 -2.105638 70 88 50
-0.757206 -3.208426 -2.106091 69 86 49
-0.749093 -3.211888 -2.107323 72 89 54
-0.708598 -3.245439 -2.102519 62 78 47
-0.710935 -3.237704 -2.104945 61 75 48
-0.704670 -3.236535 -2.108392 49 60 39
-0.698365 -3.235101 -2.111718 45 60 34
-0.727006 -3.187903 -2.114465 26 31 21
-0.715369 -3.223882 -2.109716 42 51 35
-0.716489 -3.220829 -2.111010 37 45 31
-0.712036 -3.234054 -2.106086 58 72 47
-0.713647 -3.228835 -2.107781 53 64 43
-0.705878 -3.233290 -2.109795 47 58 38
-0.707481 -3.228325 -2.111528 40 49 33
-0.720683 -3.330112 -2.068347 77 97 54
-0.722027 -3.324241 -2.069458 79 98 55
-0.719031 -3.338860 -2.067287 75 95 53
-0.719651 -3.335343 -2.067639 76 97 54
-0.722173 -3.356875 -2.061901 60 79 40
-0.738727 -3.353000 -2.064948 55 66 37
-0.741968 -3.352067 -2.065928 55 63 36
-0.715861 -3.323724 -2.073201 80 101 56
-0.711585 -3.339187 -2.069027 79 100 56
-0.705184 -3.338629 -2.072364 79 102 57
-0.701379 -3.328523 -2.078206 81 104 57
-0.699927 -3.337101 -2.077453 81 103 56
-0.700810 -3.331529 -2.077839 80 103 56
-0.710199 -3.347709 -2.068374 76 96 54
-0.710806 -3.343919 -2.068648 77 98 55
-0.703547 -3.347363 -2.071329 79 100 57
-0.704496 -3.342454 -2.071960 79 102 57
-0.695567 -3.354744 -2.073569 78 99 54
-0.711034 -3.375026 -2.060928 62 78 41
-0.712549 -3.368829 -2.062263 61 78 42
-0.711325 -3.392697 -2.057239 47 57 34
-0.705873 -3.394095 -2.055968 58 72 43
-0.707350 -3.388064 -2.057272 59 75 42
-0.708285 -3.384703 -2.058191 62 79 44
-0.710003 -3.378808 -2.059932 62 78 42
-0.720232 -3.390283 -2.059600 39 44 27
-0.716038 -3.391464 -2.058391 37 44 27
-0.698377 -3.366439 -2.066356 77 95 54
-0.699443 -3.362657 -2.067410 78 97 56
-0.695869 -3.375912 -2.063987 72 89 49
-0.696841 -3.372262 -2.064909 74 92 51
-0.692979 -3.360164 -2.070254 79 99 55
-0.693039 -3.385657 -2.061126 67 84 45
-0.694208 -3.381658 -2.062313 69 85 46
-0.689779 -3.395767 -2.057606 64 77 43
-0.691485 -3.390451 -2.059443 66 81 45
-0.735358 -3.362469 -2.062873 45 55 32
-0.729353 -3.364120 -2.061226 58 73 41
-0.726050 -3.364835 -2.060747 60 77 43
-0.720389 -3.365734 -2.060642 62 81 42
-0.721400 -3.360296 -2.061273 61 80 41
-0.713215 -3.365831 -2.062795 60 77 41
-0.744163 -3.360043 -2.065294 37 40 25
-0.739912 -3.361157 -2.064250 40 47 29
-0.741035 -3.356079 -2.065144 48 55 32
-0.749350 -3.359142 -2.065561 55 54 35
-0.733564 -3.378525 -2.063415 78 77 45
-0.741915 -3.376046 -2.066104 88 86 51
-0.738475 -3.377070 -2.064991 88 86 50
-0.574351 -3.319222 -2.087037 111 94 60
-0.566273 -3.318630 -2.090182 110 94 61
-0.579643 -3.321450 -2.084813 109 92 59
-0.649137 -3.327232 -2.080673 72 90 50
-0.643526 -3.328319 -2.080136 71 89 51
-0.644964 -3.324294 -2.081774 70 88 50
-0.638498 -3.329442 -2.079331 70 86 50
-0.634020 -3.330392 -2.078721 67 83 50
-0.635268 -3.327209 -2.080206 69 86 51
-0.688608 -3.320033 -2.083458 80 103 56
-0.657127 -3.297572 -2.097105 54 66 40
-0.647247 -3.303785 -2.095883 49 58 37
-0.658001 -3.324813 -2.083060 71 90 48
-0.652896 -3.326362 -2.081342 72 91 49
-0.654741 -3.321923 -2.083590 70 89 49
-0.657893 -3.314693 -2.088122 68 86 47
-0.638753 -3.319503 -2.084588 65 80 48
-0.641503 -3.314871 -2.088337 60 73 45
-0.644690 -3.309163 -2.092612 53 64 41
-0.638349 -3.307488 -2.095829 43 52 36
-0.663921 -3.312183 -2.091235 67 84 47
-0.660999 -3.309731 -2.091787 66 82 47
-0.604636 -3.312651 -2.092163 110 95 62
-0.601267 -3.313538 -2.091327 110 96 62
-0.602452 -3.311446 -2.092923 111 96 63
-0.617641 -3.332306 -2.079923 50 60 39
-0.619279 -3.328772 -2.082001 48 56 36
-0.611605 -3.331438 -2.083820 41 48 32
-0.613055 -3.327875 -2.085572 61 63 41
-0.599317 -3.317499 -2.088805 108 94 60
-0.597778 -3.331761 -2.087672 84 77 45
-0.605115 -3.330956 -2.087021 54 54 33
-0.609260 -3.316225 -2.091120 103 90 57
-0.595369 -3.315023 -2.090014 109 94 61
-0.581335 -3.318462 -2.087091 114 96 63
-0.582902 -3.316219 -2.089305 116 97 64
-0.589422 -3.319088 -2.086632 112 95 62
-0.586278 -3.317415 -2.087760 115 97 64
-0.591151 -3.316128 -2.088979 111 94 61
-0.620887 -3.372277 -2.079104 72 93 48
-0.621044 -3.378621 -2.079537 70 90 46
-0.617397 -3.350150 -2.076029 69 84 51
-0.613245 -3.350726 -2.076135 71 87 54
-0.613785 -3.346045 -2.076117 68 83 53
-0.605942 -3.350932 -2.078092 58 71 46
-0.599893 -3.350076 -2.081968 40 48 33
-0.601343 -3.344292 -2.083277 34 40 28
-0.598142 -3.358907 -2.080758 53 64 43
-0.598882 -3.354831 -2.081201 45 54 36
-0.603171 -3.374284 -2.080542 68 84 51
-0.596647 -3.374870 -2.081409 70 85 54
-0.616335 -3.372696 -2.079686 72 93 50
-0.612965 -3.373007 -2.080115 73 93 51
-0.612721 -3.366936 -2.079135 72 91 51
-0.613421 -3.395183 -2.084083 71 93 48
-0.595372 -3.389702 -2.084470 70 85 51
-0.588774 -3.390254 -2.085433 67 81 50
-0.588241 -3.398054 -2.086088 74 90 54
-0.584254 -3.373407 -2.088710 43 51 34
-0.584826 -3.369255 -2.088853 39 46 31
-0.585460 -3.365037 -2.089086 35 41 28
-0.568119 -3.383830 -2.106357 42 51 32
-0.568175 -3.380014 -2.105690 43 52 34
-0.564590 -3.394167 -2.102427 44 51 31
-0.565722 -3.390610 -2.103640 44 53 32
-0.635555 -3.338960 -2.077005 72 89 51
-0.631652 -3.339746 -2.076567 70 87 51
-0.632487 -3.335618 -2.077160 69 86 51
-0.645885 -3.336714 -2.078529 74 92 50
-0.641193 -3.337644 -2.078035 74 91 50
-0.642238 -3.333072 -2.078896 73 91 51
-0.655425 -3.334375 -2.080518 74 95 51
-0.650565 -3.335685 -2.079244 73 93 50
-0.651843 -3.329553 -2.080189 73 92 49
-0.644024 -3.352763 -2.079111 67 86 43
-0.639468 -3.353801 -2.078334 67 85 43
-0.686694 -3.329002 -2.081999 78 101 54
-0.687602 -3.324678 -2.082677 79 103 56
-0.684495 -3.345561 -2.081573 80 103 55
-0.682194 -3.354858 -2.079521 79 102 54
-0.683433 -3.350767 -2.080808 79 102 55
-0.660381 -3.376072 -2.075345 76 97 51
-0.662121 -3.370741 -2.077238 75 96 50
-0.653305 -3.377054 -2.077844 74 95 49
-0.680623 -3.358989 -2.077677 78 100 53
-0.663969 -3.394274 -2.070755 79 100 54
-0.659171 -3.384444 -2.074964 79 100 55
-0.659558 -3.380600 -2.074852 78 99 53
-0.652702 -3.383944 -2.078197 77 99 52
-0.658291 -3.392538 -2.075085 78 98 52
-0.652116 -3.391788 -2.078770 79 100 53
-0.642304 -3.368828 -2.079611 70 91 46
-0.638071 -3.369682 -2.079134 68 89 44
-0.648046 -3.367212 -2.081267 71 93 48
-0.614441 -3.342365 -2.076495 65 79 50
-0.616294 -3.335825 -2.078338 54 66 42
-0.610133 -3.335346 -2.082099 37 44 30
-0.602449 -3.340562 -2.084411 33 40 28
-0.604004 -3.335079 -2.085956 48 51 33
-0.791357 -3.277333 -2.055294 63 78 48
-0.785871 -3.278646 -2.054222 63 78 44
-0.815864 -3.274006 -2.046956 36 41 25
-0.813618 -3.276491 -2.049800 31 36 24
-0.811930 -3.274513 -2.054701 43 52 34
-0.813172 -3.269696 -2.055847 46 55 36
-0.805877 -3.273660 -2.058570 64 79 50
-0.810481 -3.278708 -2.053077 43 52 33
-0.800058 -3.274895 -2.057777 56 68 43
-0.796086 -3.275973 -2.056720 59 72 45
-0.785862 -3.256923 -2.066136 79 100 57
-0.781026 -3.258387 -2.070593 74 96 49
-0.764719 -3.285971 -2.062722 73 89 54
-0.766356 -3.282039 -2.064718 77 95 57
-0.768733 -3.303247 -2.058671 59 76 41
-0.763392 -3.289227 -2.061117 68 84 51
-0.765535 -3.303889 -2.058315 60 77 41
-0.760015 -3.304652 -2.058462 61 79 43
-0.798562 -3.301900 -2.051785 19 24 15
-0.800148 -3.295626 -2.053225 35 42 27
-0.796852 -3.300651 -2.055093 19 25 16
-0.794167 -3.299643 -2.058192 29 36 23
-0.718482 -3.283275 -2.083898 81 105 58
-0.719414 -3.280225 -2.084871 80 104 57
-0.711561 -3.283158 -2.086440 80 103 57
-0.713093 -3.278686 -2.088150 77 100 55
-0.705809 -3.282050 -2.090770 75 98 53
-0.706998 -3.278647 -2.092111 74 96 52
-0.754453 -3.254682 -2.082002 75 98 52
-0.755770 -3.252406 -2.083786 76 99 52
-0.757890 -3.265099 -2.075598 79 104 58
-0.759030 -3.260494 -2.076616 77 100 55
-0.752559 -3.257958 -2.079440 77 100 55
-0.742869 -3.247604 -2.089558 78 101 55
-0.755745 -3.281612 -2.075254 79 99 58
-0.749083 -3.281275 -2.078193 80 102 60
-0.730642 -3.247283 -2.097369 73 94 52
-0.727247 -3.250061 -2.101126 71 88 51
-0.725157 -3.251301 -2.103178 70 86 51
-0.709460 -3.271040 -2.094775 71 88 48
-0.745815 -3.293826 -2.075148 77 96 52
-0.737673 -3.312985 -2.065140 72 89 52
-0.739664 -3.306729 -2.067275 77 95 55
-0.743429 -3.320767 -2.063757 65 84 48
-0.736560 -3.321275 -2.064908 70 88 50
-0.737061 -3.316323 -2.064769 71 89 51
-0.726139 -3.310794 -2.073758 79 100 55
-0.727519 -3.306950 -2.075333 80 101 55
-0.722858 -3.320922 -2.070205 79 98 55
-0.724682 -3.314992 -2.072121 79 99 55
-0.714176 -3.302042 -2.081735 81 105 57
-0.707350 -3.301421 -2.082934 80 103 56
-0.707952 -3.298306 -2.083335 80 104 56
-0.699811 -3.301827 -2.084530 80 103 56
-0.701461 -3.295635 -2.086097 79 101 55
-0.724477 -3.291526 -2.081408 82 106 58
-0.722661 -3.300412 -2.080099 82 105 59
-0.723695 -3.295107 -2.080794 81 105 58
-0.709085 -3.292603 -2.084120 81 104 57
-0.710337 -3.287264 -2.085181 81 104 57
-0.702544 -3.292164 -2.087243 78 101 54
-0.704184 -3.286837 -2.088966 76 99 53
-0.717644 -3.319358 -2.075360 80 101 56
-0.718796 -3.316340 -2.076714 80 101 56
-0.697686 -3.310975 -2.082748 80 103 56
-0.698896 -3.305478 -2.083705 80 104 57
-0.754752 -3.285862 -2.074417 78 97 58
-0.747471 -3.289989 -2.077196 75 95 51
-0.748597 -3.285425 -2.078198 77 98 55
-0.814185 -3.265254 -2.056682 49 57 38
-0.782290 -3.255023 -2.072069 71 94 47
-0.775025 -3.255927 -2.074231 71 94 46
-0.793194 -3.270565 -2.122370 65 58 37
-0.794299 -3.266268 -2.123389 57 51 32
-0.809517 -3.283793 -2.123146 76 67 43
-0.808627 -3.284148 -2.122659 78 69 44
-0.808815 -3.281828 -2.122516 77 68 44
-0.813659 -3.274416 -2.124766 60 54 37
-0.809522 -3.276042 -2.122560 72 65 42
-0.758800 -3.245656 -2.087587 78 103 56
-0.734033 -3.242929 -2.102261 69 85 50
-0.735990 -3.329106 -2.065505 68 86 49
-0.679751 -3.272854 -2.101957 59 74 48
-0.681022 -3.267876 -2.103122 55 68 45
-0.677510 -3.282100 -2.099998 63 80 47
-0.678533 -3.278226 -2.100961 61 77 48
-0.648825 -3.282477 -2.108634 16 20 12
-0.673201 -3.272421 -2.105068 44 54 36
-0.674802 -3.267003 -2.106704 39 48 32
-0.668501 -3.265599 -2.110044 30 38 25
-0.672107 -3.275985 -2.103920 48 58 38
-0.685558 -3.253238 -2.107905 37 45 30
-0.686474 -3.250325 -2.108880 32 39 26
-0.688963 -3.263682 -2.101453 65 81 49
-0.689977 -3.260031 -2.102446 63 78 49
-0.682280 -3.263363 -2.104358 50 61 41
-0.683718 -3.258900 -2.105910 45 55 38
-0.711039 -3.251616 -2.103060 61 75 45
-0.707580 -3.252525 -2.102206 59 73 44
-0.706701 -3.270835 -2.097498 70 87 49
-0.700952 -3.270159 -2.100880 66 81 48
-0.696190 -3.270889 -2.100847 65 81 47
-0.704300 -3.270000 -2.100125 69 85 50
-0.703855 -3.271339 -2.099637 69 85 50
-0.679129 -3.252704 -2.111200 25 30 21
-0.680088 -3.248347 -2.111959 18 21 15
-0.676200 -3.262533 -2.108187 37 45 31
-0.677536 -3.258284 -2.109608 34 42 30
-0.669491 -3.262236 -2.111053 28 34 23
-0.695287 -3.295068 -2.089818 75 98 52
-0.687803 -3.300038 -2.092422 73 95 49
-0.689306 -3.295791 -2.094127 72 95 49
-0.681706 -3.299222 -2.096225 69 89 48
-0.683045 -3.294649 -2.097586 68 88 48
-0.696656 -3.291171 -2.091366 74 97 52
-0.698136 -3.287115 -2.093071 73 95 50
-0.684282 -3.289692 -2.098697 67 85 49
-0.686441 -3.303640 -2.090826 73 95 49
-0.680306 -3.303336 -2.094666 70 91 49
-0.658777 -3.293356 -2.099066 51 61 38
-0.660064 -3.290201 -2.100623 48 57 36
-0.647308 -3.286355 -2.106830 16 19 11
-0.561158 -3.317921 -2.094938 106 92 57
-0.542580 -3.358655 -2.082038 47 43 32
-0.541099 -3.361626 -2.084650 47 43 32
-0.544133 -3.362795 -2.090041 31 34 22
-0.527163 -3.376845 -2.092664 64 65 33
-0.567034 -3.376549 -2.105099 46 54 36
-1.045290 -2.986859 -2.204455 29 31 20
-1.028737 -3.011564 -2.190876 14 16 10
-1.019252 -3.027189 -2.196206 47 51 32
-1.018836 -3.025411 -2.198948 60 66 42
-1.020834 -3.021560 -2.201573 58 62 37
-1.011728 -3.025706 -2.201254 71 79 45
-1.014614 -3.020693 -2.205158 66 72 40
-1.044776 -2.993014 -2.208197 40 42 27
-1.038204 -3.002274 -2.198583 17 18 12
-1.036610 -3.005568 -2.201448 20 22 14
-1.043344 -2.994566 -2.205778 34 36 23
-1.041456 -2.997000 -2.203056 26 27 17
-1.039961 -3.002500 -2.207078 21 23 14
-1.029331 -3.014257 -2.201497 31 33 20
-1.034716 -3.011748 -2.206106 31 35 21
-1.031823 -3.013041 -2.204219 32 36 22
-1.024086 -3.016287 -2.206047 56 61 35
-1.040509 -3.017616 -2.205569 38 41 25
-1.040190 -3.019282 -2.205360 41 43 27
-1.037995 -3.018537 -2.207722 48 52 30
-1.033605 -3.012189 -2.207077 35 38 23
-1.027568 -3.012543 -2.211217 58 65 37
-1.037367 -3.008677 -2.212192 40 43 25
-1.034075 -3.008211 -2.214085 49 54 30
-1.030522 -3.007979 -2.215324 57 63 36
-1.034260 -3.003240 -2.220730 57 61 34
-1.041268 -3.018369 -2.207009 43 45 27
-1.021479 -3.010007 -2.214689 54 61 33
-1.024534 -3.005956 -2.219072 56 61 33
-1.013778 -3.009274 -2.218465 61 71 33
-1.018317 -3.005108 -2.222664 60 69 32
-1.028026 -3.002276 -2.224270 56 61 32
-1.021821 -3.001510 -2.227901 57 65 29
-1.026293 -3.009108 -2.214682 56 62 36
-1.024341 -3.011324 -2.212651 58 64 36
-1.029202 -3.009956 -2.213476 58 64 36
-0.997291 -3.025721 -2.205376 65 75 37
-0.998816 -3.023524 -2.207530 63 73 36
-0.993267 -3.023640 -2.211673 49 59 26
-1.008469 -3.008770 -2.220986 54 66 27
-1.004790 -3.009030 -2.221949 51 64 24
-1.005549 -3.007837 -2.223001 51 63 24
-1.001390 -3.008919 -2.223314 48 61 21
-1.002421 -3.007285 -2.224739 48 60 21
-1.005408 -3.013553 -2.216739 59 69 32
-0.999206 -3.012804 -2.220377 49 62 23
-0.999378 -3.007590 -2.226897 48 59 20
-0.990249 -3.019852 -2.220688 45 55 20
-0.989500 -3.016293 -2.228651 48 59 22
-1.015516 -3.000071 -2.231224 48 58 24
-1.012386 -3.002198 -2.234447 46 56 22
-0.974837 -3.004183 -2.260082 43 40 23
-0.972318 -3.005012 -2.259094 41 41 22
-0.973229 -3.002325 -2.260104 41 40 22
-1.046092 -2.984891 -2.208513 32 33 23
-1.030231 -2.974405 -2.236774 51 56 26
-1.051563 -2.983511 -2.217537 35 34 23
-1.066123 -2.988818 -2.228492 34 31 29
-1.057603 -3.000594 -2.223047 31 30 18
-1.058853 -3.007144 -2.225857 52 50 28
-1.065760 -2.998092 -2.225850 57 53 45
-1.062505 -2.999012 -2.224905 42 39 31
-1.063302 -2.994190 -2.225296 46 43 37
-1.061601 -2.991200 -2.224752 39 36 31
-1.067778 -3.004733 -2.228208 41 41 26
-1.063050 -3.005898 -2.227210 44 42 25
-1.047028 -2.983602 -2.211034 34 35 25
-1.047961 -2.986457 -2.212004 34 34 25
-1.048489 -2.990208 -2.213651 34 35 25
-1.049742 -2.980460 -2.217039 35 33 22
-1.049352 -2.995188 -2.216379 37 39 26
-1.045523 -2.973412 -2.233909 43 46 24
-1.045953 -2.973388 -2.234636 43 46 23
-1.038224 -2.973614 -2.235873 43 46 23
-1.039884 -2.973523 -2.238676 38 40 20
-1.042305 -3.002256 -2.224446 59 62 35
-1.037829 -3.000076 -2.226164 58 62 34
-1.044813 -2.999089 -2.230572 60 62 35
-1.041465 -2.997358 -2.231801 59 62 35
-1.044552 -3.004292 -2.224105 60 64 34
-1.031645 -2.999445 -2.229856 56 61 30
-1.025516 -2.999180 -2.233715 55 62 26
-1.047646 -2.995961 -2.236507 60 62 37
-1.045091 -2.994572 -2.237408 59 62 36
-1.051610 -2.992966 -2.241776 60 62 38
-1.048630 -2.991205 -2.242749 58 61 34
-1.037807 -2.994508 -2.242132 59 64 31
-1.029216 -2.997215 -2.239808 50 59 23
-1.042105 -2.991694 -2.247284 59 65 31
-1.033011 -2.995227 -2.245664 47 55 21
-1.036708 -2.992915 -2.251486 46 53 20
-1.088440 -2.977050 -2.246970 42 41 35
-1.085711 -2.977986 -2.245816 47 45 39
-1.086658 -2.974517 -2.246732 46 45 36
-1.091334 -2.990197 -2.252357 43 39 28
-1.087024 -2.991569 -2.250764 51 48 35
-1.080810 -2.979614 -2.243858 43 41 32
-1.084211 -2.992820 -2.248946 52 51 37
-1.064098 -2.972871 -2.251045 33 34 19
-1.056582 -2.990089 -2.246453 57 58 34
-1.052099 -2.987374 -2.247879 58 61 33
-1.058550 -2.996724 -2.248840 62 65 36
-1.063251 -2.995380 -2.253829 61 63 35
-1.062033 -2.987956 -2.251228 57 57 34
-1.045800 -2.988693 -2.252725 60 65 30
-1.044143 -2.988560 -2.263252 47 51 22
-1.065263 -2.984706 -2.255313 57 56 34
-1.066936 -2.983297 -2.257953 56 56 32
-1.073060 -2.988047 -2.263108 66 65 36
-1.069522 -2.982045 -2.262098 57 56 31
-1.057800 -2.985088 -2.271442 55 56 26
-1.055195 -2.985945 -2.273618 59 58 26
-1.048845 -2.987535 -2.271038 59 59 27
-1.013648 -2.969290 -2.253477 43 43 21
-1.022426 -2.975036 -2.237964 36 37 21
-1.029004 -2.974559 -2.236841 50 55 26
-1.023960 -2.975515 -2.240667 38 39 22
-1.015576 -2.974858 -2.240614 35 32 21
-1.017959 -2.976105 -2.244915 37 35 22
-1.020547 -2.977995 -2.249691 41 42 20
-1.022377 -2.978591 -2.252921 47 51 21
-1.018662 -3.000749 -2.229543 53 62 27
-1.023660 -3.000289 -2.230782 56 64 28
-1.020524 -2.999679 -2.232494 50 59 25
